ply
format ascii 1.0
element vertex 731
property float x
property float y
property float z
property float nx
property float ny
property float nz
property uchar diffuse_red
property uchar diffuse_green
property uchar diffuse_blue
end_header
9.08169 2.71896 2.58392 0.274971 -0.932788 -0.23302 132 132 132
9.19396 2.73394 2.64608 0.178651 -0.858918 -0.479941 130 130 132
9.19223 2.70603 2.57216 0.108244 -0.97987 -0.167741 134 135 137
9.19223 2.70603 2.57216 0.108244 -0.97987 -0.167741 134 134 137
9.27519 2.72733 2.60935 0.406991 -0.873782 -0.266201 123 122 125
9.31012 2.72765 2.63538 0.242384 -0.8808 -0.406746 127 127 129
9.47387 2.70003 2.54007 -0.0217251 -0.994006 -0.107146 125 126 127
9.51894 2.70144 2.57944 0.0487164 -0.995168 -0.0852437 122 122 125
9.57921 2.70045 2.53886 0.0561493 -0.995264 -0.0793505 132 133 134
9.68149 2.71569 2.58159 -0.183808 -0.960884 -0.207162 127 127 129
9.72964 2.70929 2.61866 -0.106729 -0.970856 -0.214585 132 133 134
9.77169 2.70362 2.55233 0.00522142 -0.974357 -0.224946 123 124 126
9.81786 2.69812 2.57391 0.0659398 -0.969269 -0.237 125 125 128
9.94291 2.69549 2.57082 -0.0162653 -0.991542 -0.12876 128 127 130
10.0426 2.69494 2.5702 0.00860976 -0.993759 -0.11122 131 132 134
10.0889 2.69419 2.59637 0.0694112 -0.989033 -0.13037 129 130 133
10.1386 2.69863 2.56874 0.0153431 -0.996166 -0.0861304 123 124 127
10.1875 2.69892 2.60078 -0.0358612 -0.996352 -0.0774422 126 126 128
10.2416 2.69714 2.56222 -0.0718282 -0.992937 -0.0944326 129 129 132
10.243 2.69709 2.5687 -0.0441162 -0.996026 -0.0773656 128 128 131
10.2922 2.69513 2.59682 0.0156328 -0.99573 -0.0909763 132 132 134
10.5457 2.69826 2.57739 0.131174 -0.982284 -0.133835 132 132 135
10.5922 2.69785 2.6055 0.0354892 -0.993398 -0.109095 124 124 128
10.6896 2.69337 2.60534 0.121699 -0.982754 -0.139223 124 124 126
11.2011 2.68943 2.63677 -0.215249 -0.9593 -0.182789 128 128 131
11.2448 2.68419 2.60771 -0.192237 -0.962826 -0.189767 124 125 126
11.365 2.69018 2.59406 0.0791025 -0.984895 -0.154031 133 134 136
11.4411 2.69149 2.6495 0.078645 -0.964675 -0.25143 124 124 126
11.4697 2.6788 2.58343 0.204019 -0.895525 -0.395488 126 127 127
11.5 2.67738 2.59626 0.293553 -0.85127 -0.434933 130 130 130
11.5581 2.66685 2.60614 0.00215401 -0.667989 -0.744168 137 136 136
11.5965 2.67628 2.61197 0.049911 -0.418233 -0.906967 152 146 141
11.6341 2.69879 2.63274 -0.185106 0.418483 -0.889161 125 125 124
12.0099 2.67655 2.61187 0.219797 -0.872936 -0.435514 111 114 114
12.0105 2.67698 2.61303 0.0779626 -0.936534 -0.341798 113 115 116
12.0134 2.67898 2.61846 0.23285 -0.864843 -0.444777 111 114 114
12.0651 2.67549 2.65061 0.384893 -0.758925 -0.525252 121 121 123
12.0929 2.64721 2.56219 0.309239 -0.538902 -0.783554 122 123 125
12.1414 2.63919 2.57105 0.474528 -0.280155 -0.834467 120 121 123
12.1975 2.67201 2.60261 0.435799 -0.227657 -0.870777 136 139 142
12.2341 2.67594 2.62851 0.469294 -0.16195 -0.868064 143 147 151
12.2528 2.67254 2.62592 0.467276 -0.126067 -0.875077 143 148 151
12.2898 2.68951 2.68458 0.0893211 -0.97215 -0.216671 157 161 163
12.3009 2.69356 2.65144 0.21688 -0.858154 -0.465333 122 123 125
12.3296 2.68968 2.66713 0.151715 -0.898253 -0.412462 123 123 125
12.3818 2.71519 2.69112 0.147591 -0.905152 -0.398644 122 123 125
12.4189 2.72457 2.7429 0.220587 -0.904036 -0.366142 121 123 124
12.4608 2.72516 2.76446 0.171731 -0.892081 -0.417971 117 118 120
6.72671 2.74147 2.46707 0.364568 -0.8165 -0.447681 122 122 123
6.72674 2.7415 2.46714 0.367733 -0.812913 -0.451603 122 122 123
6.73687 2.72978 2.44373 0.492476 -0.744648 -0.450519 122 122 123
6.70682 2.75643 2.51338 0.405253 -0.766729 -0.497892 121 121 122
6.77155 2.73081 2.45918 0.520897 -0.680417 -0.51546 120 121 123
8.41294 2.72882 2.49177 0.0975244 -0.993604 -0.0569294 50 50 55
8.41298 2.72879 2.49173 0.0980739 -0.993567 -0.0566173 50 50 55
8.41298 2.72879 2.49173 0.0980739 -0.993567 -0.0566173 50 50 55
8.52091 2.72516 2.51041 0.0598447 -0.994257 -0.0887234 56 57 60
8.56474 2.72587 2.50697 0.08776 -0.994318 -0.0602537 55 55 58
8.63505 2.71659 2.52096 0.110462 -0.991896 -0.0627719 52 52 56
8.69104 2.72178 2.4816 0.10949 -0.982499 -0.150689 102 100 99
8.8285 2.72704 2.51545 0.0997305 -0.983061 -0.153767 120 119 117
8.86739 2.73294 2.53861 0.433645 -0.864977 -0.25252 117 116 115
8.90287 2.71844 2.50135 0.426365 -0.873529 -0.234862 121 120 119
8.90062 2.7465 2.57663 0.446947 -0.848444 -0.283515 123 122 122
8.90883 2.71839 2.51233 0.307772 -0.924944 -0.223059 120 119 119
9.03661 2.73221 2.52745 0.686177 -0.657601 -0.311002 135 136 136
9.08169 2.73061 2.53929 0.247637 -0.942016 -0.226452 130 130 131
9.19141 2.70399 2.48667 0.0782468 -0.972409 -0.219768 123 122 125
9.19886 2.70879 2.51102 0.0430287 -0.996686 -0.0690399 124 124 126
9.23685 2.71773 2.55475 0.076182 -0.972145 -0.221652 123 123 125
9.27207 2.73831 2.56606 0.263283 -0.934831 -0.23827 124 124 126
9.30974 2.74219 2.58883 0.272077 -0.930878 -0.243805 125 125 126
9.37174 2.70474 2.4777 0.00505776 -0.996132 -0.0877189 120 120 121
9.42504 2.70112 2.506 -0.0208977 -0.993977 -0.107573 123 124 125
9.52405 2.70265 2.51202 0.0114696 -0.997016 -0.0763347 128 128 130
9.63494 2.70238 2.50423 0.0425962 -0.996178 -0.0762534 123 123 125
9.73938 2.71183 2.54281 0.133652 -0.960871 -0.24262 122 122 124
9.81656 2.70736 2.51188 -0.0344029 -0.975398 -0.21775 130 130 132
9.86304 2.70344 2.53754 0.0637802 -0.96984 -0.235248 124 124 127
9.89428 2.69893 2.54117 -0.0434121 -0.994374 -0.0966212 117 118 120
9.94598 2.69874 2.50871 0.0213612 -0.99666 -0.0788207 129 129 132
9.9907 2.70051 2.54554 -0.0197088 -0.992703 -0.118961 128 128 131
10.0407 2.70152 2.5174 0.066803 -0.993628 -0.0907834 130 130 131
10.0888 2.70127 2.54383 0.0690731 -0.992933 -0.0965016 125 125 128
10.1453 2.69518 2.49968 -0.0345066 -0.996756 -0.0727111 122 122 125
10.192 2.69782 2.53443 -0.0434861 -0.99604 -0.0775516 120 119 123
10.2967 2.69567 2.53622 -0.045231 -0.996314 -0.0728822 124 124 127
10.3481 2.69666 2.50748 0.00687542 -0.996228 -0.0865042 129 129 132
10.594 2.70078 2.54938 0.0375352 -0.994142 -0.10136 126 127 129
10.6416 2.69643 2.57149 0.0723415 -0.990517 -0.116802 133 133 134
11.1065 2.69762 2.55813 -0.0299311 -0.969425 -0.243556 118 119 121
11.15 2.69722 2.59493 -0.0296654 -0.968758 -0.246227 125 125 127
11.195 2.69337 2.56968 -0.181742 -0.964728 -0.190448 120 121 122
11.237 2.68997 2.54225 -0.194005 -0.963219 -0.185933 124 125 127
11.2611 2.68993 2.54104 0.368482 -0.873404 -0.318414 124 124 127
11.3207 2.70032 2.58762 0.285767 -0.920423 -0.266755 123 124 126
11.3002 2.67654 2.53301 0.3596 -0.868809 -0.340379 123 124 125
11.4159 2.678 2.54266 0.0894619 -0.935098 -0.342911 125 125 126
11.5227 2.69019 2.58281 -0.0354815 -0.731548 -0.680866 141 136 133
11.6682 2.70488 2.62956 0.470308 -0.749234 -0.466326 123 124 126
11.7616 2.68021 2.57122 -0.051691 -0.993149 -0.104797 123 123 124
11.8672 2.67175 2.55188 -0.0499 -0.991856 -0.117178 123 124 126
11.9037 2.6711 2.57409 0.069613 -0.98141 -0.178854 114 114 116
11.908 2.67269 2.52845 -0.0761971 -0.992568 -0.094882 115 116 118
11.9396 2.67251 2.54507 0.151167 -0.960773 -0.232516 119 121 122
11.9743 2.69331 2.6111 0.114341 -0.803851 -0.583737 115 118 118
11.9932 2.66303 2.52201 0.325388 -0.791603 -0.517192 118 120 121
12.1303 2.66846 2.56136 0.411578 -0.137624 -0.900923 123 125 128
12.1595 2.66672 2.57118 0.474332 -0.280196 -0.834565 143 146 148
12.2507 2.70547 2.63007 0.381355 -0.305155 -0.87261 121 122 124
12.3462 2.71479 2.66371 0.115614 -0.813968 -0.569288 119 120 122
8.46912 2.73242 2.49278 0.0595931 -0.986835 -0.150351 48 49 54
8.57556 2.72097 2.4309 0.0988997 -0.993575 -0.0550285 56 56 60
8.62399 2.70933 2.39775 0.0932029 -0.993909 -0.058815 56 56 59
8.66731 2.72158 2.44132 0.0962002 -0.993741 -0.0567843 72 71 72
8.73636 2.73517 2.46503 0.422531 -0.880051 -0.216745 118 117 116
8.86665 2.72405 2.4415 0.341113 -0.914208 -0.218784 118 117 116
8.87026 2.72498 2.44271 0.36282 -0.90524 -0.221137 119 117 116
8.90341 2.72255 2.44114 0.367245 -0.902716 -0.224133 128 127 128
8.96007 2.71944 2.47509 0.215656 -0.96326 -0.16007 128 128 129
9.00354 2.72114 2.49225 0.223585 -0.960868 -0.163533 129 130 131
9.10226 2.71719 2.45577 -0.0776963 -0.984946 -0.154415 122 122 123
9.14757 2.71801 2.49145 0.0774065 -0.973066 -0.217141 130 130 132
9.19126 2.71285 2.43029 0.0768258 -0.973506 -0.215368 127 127 130
9.23571 2.71299 2.46228 0.0798473 -0.972659 -0.21808 125 126 128
9.31898 2.70734 2.44851 0.0107762 -0.996397 -0.0841185 128 128 129
9.42645 2.70617 2.44444 0.0274592 -0.997434 -0.0661172 126 127 129
9.478 2.70228 2.47472 0.0214775 -0.997382 -0.0690446 128 129 131
9.5295 2.70191 2.44363 0.0106752 -0.99734 -0.0721092 122 123 125
9.58101 2.70339 2.47579 0.0473317 -0.996192 -0.0732186 129 129 131
9.6397 2.70193 2.43687 0.093314 -0.992502 -0.0789433 120 121 123
9.69291 2.70112 2.46635 0.00410162 -0.997575 -0.0694801 127 128 130
9.77112 2.71404 2.49547 0.147695 -0.884299 -0.442946 125 125 128
9.86278 2.71145 2.48496 -0.0588807 -0.975408 -0.212396 123 123 125
9.89625 2.69832 2.47695 0.0235652 -0.996828 -0.0760222 127 128 131
9.94917 2.69747 2.44284 -0.0504739 -0.994517 -0.0915908 122 122 125
9.9982 2.69839 2.47625 0.00548954 -0.997214 -0.074395 123 124 126
10.0546 2.69481 2.43861 -0.00136353 -0.997412 -0.071888 126 127 129
10.1503 2.69605 2.4389 -0.0364812 -0.996941 -0.0691194 127 127 130
10.1971 2.69597 2.46506 0.0647664 -0.993641 -0.0921071 123 122 125
10.3962 2.6998 2.48022 0.0296622 -0.995614 -0.0887325 118 118 122
10.5466 2.70486 2.52735 0.0280888 -0.986434 -0.161735 124 124 127
11.0531 2.6971 2.51127 -0.0868439 -0.971806 -0.219206 129 130 132
11.0974 2.6985 2.48378 -0.0912762 -0.971927 -0.216856 128 129 130
11.1528 2.7107 2.5602 -0.0743317 -0.901151 -0.427085 121 122 124
11.1639 2.67272 2.4409 -0.396501 -0.909945 -0.121599 124 125 126
11.2347 2.68206 2.47574 -0.585946 -0.806593 -0.0779423 122 122 123
11.258 2.67515 2.4486 0.0988682 -0.925841 -0.364751 130 130 130
11.3109 2.67517 2.48726 0.371172 -0.755914 -0.539281 124 124 125
11.4035 2.68987 2.4802 -0.04174 -0.828843 -0.557922 121 120 119
11.4992 2.6849 2.47428 -0.0368359 -0.967351 -0.250749 124 125 126
11.6392 2.70788 2.55551 -0.444981 -0.891126 -0.0888093 121 122 123
11.6509 2.67203 2.50575 -0.308614 -0.947597 -0.0825632 120 120 121
11.7191 2.68728 2.53262 -0.138315 -0.967859 -0.210042 120 121 122
11.772 2.69145 2.51734 -0.198083 -0.955666 -0.217866 127 128 129
11.8679 2.6751 2.50203 -0.082269 -0.992633 -0.0889516 122 123 125
11.9229 2.66842 2.47125 0.301692 -0.888502 -0.345754 128 129 131
11.9737 2.66888 2.50939 0.210784 -0.904307 -0.371212 119 120 122
12.0041 2.67824 2.49146 0.267877 -0.907058 -0.324788 126 126 130
12.0546 2.66684 2.5104 0.507593 -0.434614 -0.743949 123 124 126
12.1099 2.69247 2.53339 0.508923 -0.453457 -0.731693 145 150 152
12.1492 2.69938 2.56716 0.473986 -0.215251 -0.853817 136 140 142
12.1775 2.69807 2.58045 0.485659 -0.40996 -0.772055 136 138 139
12.2177 2.71821 2.57884 0.393054 -0.410868 -0.822616 125 126 129
12.2448 2.71713 2.58972 0.33593 -0.76552 -0.548753 119 120 122
8.34155 2.73227 2.37418 0.0759489 -0.994312 -0.0746751 86 86 86
8.38669 2.73208 2.40165 0.1048 -0.974278 -0.199499 56 56 60
8.4242 2.72872 2.42237 0.0401241 -0.993253 -0.108801 49 49 54
8.43093 2.72891 2.40164 0.292133 -0.937309 -0.190026 50 50 55
8.47309 2.72835 2.40851 0.318489 -0.928193 -0.192414 47 48 52
8.51551 2.72841 2.41433 0.340669 -0.929653 -0.140324 50 51 55
8.58078 2.70013 2.37299 0.332699 -0.933906 -0.130884 50 50 55
8.7063 2.72183 2.38979 0.0819648 -0.995193 -0.0536038 119 118 118
8.78358 2.73408 2.4211 0.0838312 -0.975024 -0.205673 125 124 123
8.831 2.71588 2.40645 0.0900427 -0.958161 -0.271697 115 114 113
8.98139 2.72255 2.39002 0.226605 -0.961289 -0.15676 134 134 135
9.00364 2.7264 2.43311 0.216656 -0.963328 -0.1583 128 128 129
9.03664 2.71843 2.41912 0.138244 -0.988318 -0.0641585 134 134 135
9.10205 2.71705 2.37595 0.0569602 -0.976088 -0.209781 132 132 134
9.14719 2.71675 2.40897 0.0563612 -0.975621 -0.212101 126 127 129
9.23504 2.71752 2.39543 -0.0239679 -0.977529 -0.209434 124 124 126
9.26999 2.71231 2.41944 0.0175432 -0.996745 -0.0786848 130 131 132
9.32441 2.71062 2.38482 -0.0272934 -0.988343 -0.149777 123 123 125
9.37252 2.70648 2.41491 0.032998 -0.997416 -0.0638156 127 128 129
9.42587 2.70814 2.38505 0.0195161 -0.997608 -0.0663134 132 133 134
9.48237 2.70604 2.40964 -0.0117273 -0.993913 -0.109542 132 132 134
9.53557 2.70544 2.37665 -0.0505625 -0.99193 -0.116272 129 129 131
9.58757 2.70095 2.40599 0.0133293 -0.997829 -0.0644903 123 123 126
9.64009 2.70328 2.37553 0.0311197 -0.997401 -0.06498 129 130 131
9.67984 2.70202 2.37844 0.0145133 -0.99786 -0.0637571 129 130 131
9.72327 2.70015 2.40752 -0.00989984 -0.99721 -0.073992 116 117 120
9.76758 2.70366 2.37881 0.00943039 -0.987569 -0.156903 120 120 123
9.81689 2.71995 2.46209 -0.0135125 -0.976262 -0.216171 124 124 127
9.81168 2.7012 2.40623 0.0389049 -0.996649 -0.0719566 123 123 126
9.91216 2.69872 2.40477 -0.0123884 -0.997806 -0.0650414 133 133 136
9.95176 2.69974 2.38092 -0.0163131 -0.997895 -0.0627618 125 125 128
10.1925 2.69521 2.38458 0.484758 -0.835761 -0.257902 125 125 127
10.2315 2.69526 2.39657 0.357861 -0.91312 -0.195316 130 130 132
10.2283 2.64808 2.31836 0.322098 -0.897952 -0.299892 124 123 126
10.2789 2.65253 2.31575 -0.482174 -0.727111 -0.488689 125 124 128
10.3478 2.70185 2.45232 0.200359 -0.969619 -0.14034 126 126 129
10.3991 2.69561 2.40804 0.128389 -0.984949 -0.115727 125 125 128
10.9419 2.69055 2.41012 -0.117408 -0.982569 -0.144131 124 124 127
10.9916 2.68989 2.43878 -0.0340663 -0.98388 -0.175554 126 126 127
11.0295 2.68384 2.39653 -0.0787972 -0.972577 -0.218825 120 120 122
11.0849 2.68982 2.45088 -0.0628515 -0.98386 -0.167538 128 129 131
11.2989 2.68179 2.40457 0.10804 -0.944544 -0.310102 122 122 122
11.4519 2.69513 2.45116 -0.0319652 -0.965926 -0.256837 128 129 129
11.5481 2.68961 2.44404 -0.182002 -0.965552 -0.185968 118 119 121
11.648 2.68078 2.45073 -0.246865 -0.945391 -0.212822 127 128 130
11.6964 2.68067 2.4366 -0.170434 -0.966538 -0.19172 124 126 126
11.7943 2.67596 2.43067 -0.0325928 -0.993614 -0.108021 133 133 135
11.8564 2.6784 2.42342 0.194563 -0.903562 -0.381734 119 119 121
11.9048 2.66597 2.4343 0.343395 -0.588576 -0.731886 126 127 129
11.9538 2.67186 2.44468 0.295649 -0.850676 -0.434674 125 126 129
11.9735 2.66593 2.45035 0.307274 -0.808978 -0.501136 124 125 128
12.0038 2.68428 2.44807 0.242794 -0.885842 -0.395393 156 161 164
12.0301 2.67869 2.4633 0.490164 -0.106938 -0.865045 150 156 157
12.0976 2.71304 2.50024 0.466734 -0.568124 -0.677786 126 126 128
12.1405 2.72868 2.5433 0.508107 -0.580665 -0.636125 127 128 130
12.1659 2.72204 2.55956 0.475118 -0.582151 -0.65982 125 126 127
12.1945 2.7219 2.57389 0.420441 -0.382975 -0.822533 129 130 132
8.38835 2.73552 2.33634 0.0669694 -0.994724 -0.0777165 59 59 61
8.43518 2.72503 2.31883 0.0239298 -0.978408 -0.205295 59 58 62
8.47317 2.73831 2.36069 0.297965 -0.932819 -0.202648 57 56 61
8.52056 2.72824 2.35815 0.412466 -0.893493 -0.177602 52 52 57
8.56087 2.72362 2.34293 0.287176 -0.948071 -0.136718 57 57 61
8.61285 2.72343 2.31678 0.106253 -0.992367 -0.0625922 89 89 88
8.652 2.72019 2.35765 0.0647085 -0.995546 -0.0685607 96 95 94
8.70814 2.72309 2.32084 0.0822088 -0.995444 -0.0483017 94 93 94
8.7532 2.72654 2.35015 0.189581 -0.980451 -0.0526763 124 124 124
8.87117 2.73104 2.38037 0.3656 -0.90502 -0.217428 123 122 122
8.90382 2.72789 2.38433 0.39596 -0.843709 -0.362452 126 126 126
8.94017 2.72596 2.38316 0.226201 -0.950821 -0.211595 128 127 128
9.02175 2.72466 2.33619 0.120841 -0.981709 -0.147123 120 120 122
9.04715 2.71879 2.3555 0.177329 -0.972134 -0.153328 125 125 126
9.04715 2.71879 2.3555 0.177329 -0.972134 -0.153328 125 125 127
9.09141 2.71518 2.36776 -0.00207449 -0.99461 -0.103663 128 129 130
9.10219 2.71452 2.36942 -0.00327867 -0.994535 -0.104349 130 131 132
9.19113 2.72176 2.37499 0.0826565 -0.973916 -0.211317 128 128 130
9.27953 2.71661 2.35632 -0.0473601 -0.977248 -0.206744 127 127 128
9.37958 2.70806 2.34916 -0.0335437 -0.993267 -0.110887 129 130 132
9.48974 2.70483 2.34233 -0.039723 -0.993342 -0.10814 122 122 124
9.62718 2.70378 2.34915 -0.0508401 -0.992668 -0.109663 125 125 127
9.72399 2.70737 2.35444 -0.00503848 -0.988345 -0.152146 130 131 133
9.80769 2.70575 2.34493 0.0257392 -0.975643 -0.217848 127 127 130
9.86536 2.70181 2.37267 -0.0645629 -0.992602 -0.102825 130 131 133
9.91554 2.70068 2.34274 0.0272822 -0.997288 -0.0683562 129 130 133
10.0053 2.69943 2.34889 0.0505709 -0.995924 -0.0746805 126 125 129
10.0866 2.65565 2.24842 0.00813833 -0.690239 -0.723536 120 121 123
10.1515 2.69871 2.37681 -0.0461389 -0.996381 -0.0713857 123 123 126
10.1608 2.66593 2.28432 -0.175326 -0.742398 -0.646611 123 123 125
10.1882 2.65149 2.29289 0.0480624 -0.958799 -0.27999 125 125 127
10.2093 2.66633 2.2709 0.167871 -0.572514 -0.802525 128 128 130
10.2385 2.65892 2.2929 0.123957 -0.830516 -0.543027 119 119 122
10.2881 2.68091 2.30457 0.0931433 -0.963766 -0.249957 143 142 142
10.3239 2.67364 2.32286 -0.00856727 -0.986351 -0.164431 132 132 132
10.9034 2.70434 2.40246 0.0288839 -0.976038 -0.215673 129 129 131
10.9859 2.69322 2.37331 -0.00215534 -0.96977 -0.24401 116 117 118
11.0724 2.67694 2.36153 0.0310951 -0.911968 -0.40908 121 121 122
11.4933 2.69447 2.40683 0.00866876 -0.96327 -0.268394 125 126 128
11.603 2.6911 2.42706 -0.0834422 -0.96856 -0.234369 118 118 120
11.6473 2.6926 2.39794 -0.194979 -0.964775 -0.176616 118 119 120
11.7251 2.6824 2.38128 -0.109959 -0.97708 -0.182277 122 122 124
11.76 2.68107 2.41054 -0.0465042 -0.994163 -0.0973528 130 131 133
11.7994 2.67275 2.37758 0.22362 -0.937418 -0.266912 126 127 129
11.8295 2.67034 2.39357 0.194793 -0.918361 -0.344484 121 122 124
11.89 2.66659 2.36569 0.134817 -0.453361 -0.881072 124 126 128
11.9201 2.667 2.37127 0.378461 -0.41909 -0.825306 136 140 143
11.9759 2.68452 2.4274 0.346287 -0.773281 -0.53115 151 157 159
11.9513 2.67555 2.41548 0.543154 -0.390395 -0.743354 130 132 135
12.0456 2.70679 2.47121 0.224119 -0.202759 -0.953237 125 125 127
12.0193 2.69841 2.44802 0.213864 -0.936294 -0.278596 131 132 134
12.0847 2.71163 2.49136 0.355408 -0.292482 -0.887772 128 129 130
12.1284 2.73684 2.5059 0.46749 -0.576871 -0.669831 124 125 126
12.1091 2.70355 2.43361 0.263901 -0.838892 -0.476043 127 127 129
12.1536 2.68786 2.43064 0.246385 -0.842216 -0.479548 118 118 121
12.175 2.68274 2.43814 0.179932 -0.889068 -0.420931 121 122 124
8.43382 2.72385 2.29093 -0.194053 -0.895143 -0.401326 62 61 64
8.4362 2.72763 2.30443 -0.09847 -0.969285 -0.225366 61 60 64
8.43672 2.72972 2.30048 -0.0821369 -0.966873 -0.241682 63 62 65
8.4787 2.72854 2.26068 0.0422678 -0.979043 -0.199216 87 86 86
8.47887 2.7281 2.2629 0.00241993 -0.978898 -0.204335 86 85 85
8.52461 2.72254 2.26847 0.149048 -0.969958 -0.192265 83 81 82
8.56961 2.71905 2.28238 0.0764383 -0.987442 -0.138261 79 79 79
8.65358 2.72627 2.30329 0.181641 -0.973842 -0.136524 82 81 82
8.81709 2.71627 2.30399 0.0307577 -0.995657 -0.0878651 126 126 127
8.84811 2.75156 2.33913 0.546728 -0.803034 -0.237118 129 129 131
8.87063 2.74729 2.3518 0.544838 -0.803297 -0.240554 127 127 128
8.90489 2.72972 2.31237 0.287674 -0.934644 -0.209008 129 129 130
8.94057 2.72975 2.31891 0.089575 -0.975106 -0.202841 125 126 127
8.98137 2.7333 2.34347 0.235261 -0.948913 -0.210274 128 128 129
9.06714 2.71987 2.27554 0.151289 -0.977501 -0.146979 123 123 125
9.10193 2.72096 2.30773 0.0861763 -0.974638 -0.206528 129 129 131
9.19005 2.71956 2.29863 0.0214334 -0.989316 -0.144201 123 124 126
9.23482 2.72575 2.33784 -0.0431552 -0.97768 -0.205618 127 128 129
9.2794 2.72605 2.30262 -0.106943 -0.973528 -0.202008 126 126 128
9.3242 2.71959 2.32987 -0.0925401 -0.974638 -0.203759 128 128 129
9.43972 2.70931 2.31761 0.0359265 -0.997683 -0.0577777 128 128 130
9.48805 2.71292 2.28618 0.1428 -0.973781 -0.177085 123 124 127
9.53775 2.70891 2.31666 0.00104306 -0.997503 -0.0706123 129 130 132
9.58015 2.70621 2.31639 -0.0224877 -0.99607 -0.0856675 131 132 135
9.63457 2.70319 2.28175 -0.160378 -0.966321 -0.201253 126 127 129
9.67963 2.70607 2.31869 0.00499267 -0.998288 -0.0582721 125 125 127
9.72116 2.70913 2.28306 0.121915 -0.966035 -0.227844 124 124 126
9.7664 2.71063 2.32306 0.0166649 -0.976738 -0.21379 129 129 132
9.80675 2.71357 2.29152 -0.0720007 -0.977144 -0.200016 125 126 128
9.84924 2.71208 2.32191 -0.0480917 -0.977563 -0.205078 131 131 133
9.87254 2.70558 2.29435 0.142421 -0.986009 -0.0866192 125 126 128
9.95231 2.70289 2.31964 -0.0665878 -0.99332 -0.094241 121 121 124
9.94498 2.70176 2.28347 -0.0278917 -0.988663 -0.147541 121 121 124
10.0302 2.70211 2.28226 0.0198914 -0.993673 -0.110539 126 126 128
10.1161 2.66897 2.23724 0.112529 -0.779773 -0.615866 124 124 126
10.1439 2.66014 2.25086 0.190706 -0.672764 -0.714857 128 128 130
10.1775 2.66888 2.23456 0.220751 -0.554836 -0.802138 132 131 131
10.238 2.68411 2.27204 0.0523668 -0.781443 -0.621775 154 151 147
10.2553 2.68899 2.28366 0.0271575 -0.900988 -0.432993 155 150 143
10.3293 2.69406 2.29439 -0.00277132 -0.97502 -0.222099 119 114 112
10.3984 2.68299 2.25727 -0.032119 -0.975926 -0.215723 129 129 131
10.9419 2.70407 2.3681 0.330902 -0.888926 -0.316725 122 122 125
10.9369 2.69589 2.34806 -0.304521 -0.94833 -0.089089 119 119 122
11.0214 2.68431 2.32569 -0.0961978 -0.973206 -0.208846 125 125 125
11.0658 2.69278 2.30769 0.040543 -0.920434 -0.388789 126 123 122
11.3387 2.70728 2.39629 0.2566 -0.884283 -0.390129 122 122 124
11.3976 2.69483 2.3311 0.0138418 -0.964377 -0.264169 125 128 128
11.4509 2.69178 2.36844 0.013585 -0.963259 -0.268229 118 118 120
11.493 2.70462 2.36875 0.0262703 -0.96131 -0.274214 116 117 119
11.5269 2.69987 2.38799 0.00888739 -0.963258 -0.268431 117 119 121
11.5987 2.70005 2.36692 -0.0372555 -0.968161 -0.247539 116 117 119
11.7293 2.68143 2.32745 0.035776 -0.9901 -0.135731 121 122 125
11.7644 2.67857 2.34927 0.0519094 -0.987533 -0.148606 122 123 125
11.8349 2.68173 2.36192 -0.133132 -0.980029 -0.147715 120 121 124
11.7985 2.68421 2.33289 -0.0339105 -0.979945 -0.196364 127 127 130
11.8707 2.6881 2.34966 -0.120711 -0.981386 -0.149369 160 164 167
11.9048 2.69108 2.36045 0.493711 -0.296165 -0.81764 149 153 154
11.9326 2.69095 2.37698 0.50616 -0.384109 -0.77218 137 140 141
11.9654 2.69626 2.40563 0.373 -0.780509 -0.501674 134 136 138
12.0356 2.73183 2.45565 0.353529 -0.421962 -0.834844 121 122 124
12.0625 2.73851 2.47655 0.333267 -0.502481 -0.797776 127 128 129
12.1586 2.70663 2.41135 0.137262 -0.703386 -0.697429 122 124 124
8.28327 2.72107 2.18677 0.399069 -0.916392 -0.0311433 50 51 57
8.43283 2.73734 2.24891 -0.0489527 -0.987819 -0.147706 83 82 82
8.56403 2.72734 2.23244 0.145101 -0.970907 -0.190486 104 103 100
8.61958 2.72574 2.25371 0.102393 -0.986276 -0.129518 110 109 107
8.65352 2.73638 2.25456 0.185677 -0.963804 -0.191326 117 117 117
8.6971 2.73557 2.27134 -0.103263 -0.983225 -0.150348 121 121 121
8.74642 2.73002 2.23081 0.082613 -0.987449 -0.13461 129 130 130
8.90139 2.72697 2.23207 0.201247 -0.958928 -0.199894 124 124 126
8.91429 2.72313 2.25039 0.0235322 -0.993046 -0.115351 127 128 130
8.94473 2.72025 2.22864 0.260026 -0.943126 -0.207123 125 126 127
8.98201 2.72726 2.25643 0.0151994 -0.979572 -0.200517 126 126 128
8.98201 2.72726 2.25643 0.0151994 -0.979572 -0.200517 125 125 127
8.98201 2.72726 2.25643 0.0151994 -0.979572 -0.200517 125 125 127
9.02184 2.73076 2.27964 0.129266 -0.970605 -0.203016 121 121 124
9.10165 2.71619 2.21958 0.060142 -0.977653 -0.201438 129 129 130
9.14573 2.71984 2.25818 -0.034906 -0.978823 -0.201711 134 134 136
9.32302 2.7206 2.25586 -0.26852 -0.941811 -0.202209 124 124 127
9.36523 2.71235 2.22347 -0.233718 -0.950951 -0.202654 132 132 135
9.53931 2.71327 2.25075 0.0173872 -0.998536 -0.0512288 128 128 130
9.58227 2.70896 2.25566 0.0141138 -0.998506 -0.0527839 127 127 130
9.63992 2.71144 2.23739 0.00144021 -0.978669 -0.20544 127 128 130
9.63092 2.71222 2.22744 0.0345207 -0.998012 -0.0527385 133 133 136
9.67927 2.70633 2.25032 0.118646 -0.967142 -0.224854 126 127 129
9.76029 2.71425 2.24805 0.0367092 -0.987864 -0.150919 128 128 129
9.85219 2.67132 2.168 0.126739 -0.83037 -0.542608 127 127 129
9.87947 2.66348 2.19144 0.187516 -0.949371 -0.252057 130 130 133
9.87872 2.6619 2.18658 0.199999 -0.945977 -0.255201 131 131 134
9.87872 2.6619 2.18658 0.199999 -0.945977 -0.255201 131 131 134
9.98185 2.70677 2.25899 0.00570624 -0.949105 -0.314909 123 123 126
9.99881 2.66703 2.19521 0.501649 -0.736852 -0.453208 125 124 127
10.0491 2.6818 2.19183 0.466311 -0.693604 -0.549061 135 134 136
10.0788 2.67881 2.20849 0.216101 -0.7921 -0.570857 135 134 135
10.148 2.67904 2.22168 0.222834 -0.699586 -0.678914 152 150 147
10.2033 2.68364 2.22475 -0.0789673 -0.923457 -0.375488 143 141 137
10.2896 2.69887 2.26914 0.0385479 -0.93898 -0.341806 115 114 114
10.3573 2.68868 2.23482 -0.000275341 -0.974024 -0.226445 130 129 131
10.541 2.69764 2.25873 -0.0662396 -0.996543 -0.0501539 135 135 137
10.6609 2.70034 2.25738 0.10096 -0.989072 -0.107443 133 133 135
10.6978 2.70132 2.27477 0.220354 -0.961687 -0.163104 125 125 127
10.956 2.67453 2.24943 0.0109964 -0.96403 -0.265565 135 135 134
11.0261 2.70066 2.2848 -0.0114357 -0.920713 -0.390072 125 124 122
11.2643 2.70664 2.29221 -0.0393783 -0.966423 -0.25392 127 128 130
11.304 2.69791 2.31308 -0.116129 -0.983069 -0.141734 125 126 128
11.3438 2.69682 2.29187 -0.160606 -0.969782 -0.183652 128 129 131
11.3998 2.69148 2.3009 -0.1499 -0.980156 -0.129706 127 128 130
11.4311 2.68989 2.27142 -0.0761886 -0.972192 -0.221444 131 132 134
11.4623 2.67908 2.28155 -0.199227 -0.929783 -0.309536 122 123 125
11.5047 2.68682 2.27633 -0.0421439 -0.982964 -0.1789 122 124 125
11.6503 2.67674 2.25834 0.148772 -0.923069 -0.354697 125 125 128
11.7273 2.69425 2.29428 -0.00521848 -0.988495 -0.151165 129 129 131
11.7631 2.69031 2.31452 -0.0115566 -0.985686 -0.168194 130 130 132
11.7941 2.70546 2.31029 0.108264 -0.955113 -0.275749 168 172 174
11.8363 2.68375 2.31177 -0.112187 -0.981385 -0.155879 158 163 165
11.8496 2.70275 2.3239 0.535464 -0.531796 -0.656103 148 151 150
11.8842 2.70753 2.32691 0.338326 -0.370346 -0.865089 131 131 131
11.9223 2.71443 2.35373 0.279399 -0.430477 -0.858269 126 127 128
11.947 2.71191 2.36796 0.449228 -0.355843 -0.819494 123 123 125
8.3879 2.7332 2.17976 0.102454 -0.9942 -0.0327024 61 61 65
8.47703 2.7304 2.18283 0.0636557 -0.995689 -0.0674633 84 82 82
8.52666 2.72748 2.20675 0.137662 -0.947042 -0.290104 109 107 105
8.58198 2.72766 2.17168 0.113424 -0.973741 -0.19739 111 109 108
8.62358 2.73256 2.2093 0.123036 -0.973982 -0.190321 123 122 122
8.6649 2.75198 2.21277 0.591941 -0.768559 -0.242742 126 125 127
8.68672 2.75298 2.23535 0.52407 -0.8253 -0.210311 128 128 129
9.58365 2.71062 2.19499 0.00565807 -0.998519 -0.0541034 126 126 129
9.66498 2.71041 2.17603 0.00793575 -0.998919 -0.0458076 129 129 131
9.71913 2.71362 2.22083 0.0754551 -0.985084 -0.154646 118 119 121
9.76701 2.68403 2.1302 -0.198081 -0.678364 -0.707521 124 124 126
9.79292 2.67064 2.13946 0.430044 -0.847025 -0.312426 126 127 129
9.82085 2.67565 2.15772 0.203258 -0.920155 -0.334665 126 126 128
9.87251 2.66692 2.1166 -0.0204993 -0.888438 -0.458538 123 123 125
9.90301 2.65765 2.13235 -0.0239419 -0.85765 -0.513676 122 122 124
9.93068 2.68047 2.1369 0.430161 -0.51439 -0.741865 134 134 134
9.97374 2.69769 2.1742 0.398555 -0.72904 -0.556467 164 162 159
9.99951 2.68522 2.16965 0.450484 -0.776272 -0.440983 148 147 147
10.0236 2.68399 2.18002 0.382161 -0.799176 -0.463972 141 140 141
10.0789 2.70009 2.17948 0.297832 -0.7835 -0.545366 126 124 123
10.1094 2.69594 2.19653 0.139719 -0.914133 -0.380578 132 129 126
10.1383 2.69866 2.17914 -0.0232225 -0.977302 -0.210572 132 132 132
10.1753 2.69176 2.20595 -0.0635793 -0.922801 -0.379996 123 121 120
10.2107 2.69776 2.18719 -0.0551972 -0.915818 -0.397781 130 131 132
10.2456 2.68867 2.20629 0.0154847 -0.904342 -0.426528 127 126 128
10.2865 2.71004 2.22054 0.203444 -0.937122 -0.283571 136 135 136
10.321 2.69577 2.21819 0.044187 -0.946506 -0.319648 124 123 126
10.3569 2.70184 2.19225 -0.0191613 -0.977142 -0.211723 132 132 135
10.4007 2.69737 2.2199 -0.0583819 -0.977048 -0.204864 130 131 133
10.4495 2.7006 2.19833 -0.0279114 -0.998149 -0.0540339 124 124 126
10.4927 2.70097 2.22832 -0.069989 -0.996198 -0.0518732 130 130 132
10.5792 2.70004 2.21394 0.0949193 -0.990596 -0.0985368 121 121 122
10.6215 2.69818 2.23314 0.0997487 -0.989578 -0.103852 133 133 135
10.6658 2.69796 2.20214 -0.0729694 -0.996295 -0.0455113 126 126 128
10.7023 2.70126 2.22589 0.227567 -0.959955 -0.163401 129 129 131
10.7413 2.69788 2.23748 0.225044 -0.959929 -0.167007 126 126 128
10.978 2.69701 2.23955 -0.017542 -0.895522 -0.444672 122 123 123
11.0631 2.70674 2.25969 0.0705604 -0.828902 -0.554926 122 123 125
11.3044 2.70674 2.26944 -0.19598 -0.966297 -0.16692 118 119 121
11.3156 2.70183 2.2554 -0.194547 -0.966469 -0.167598 120 121 123
11.3594 2.69691 2.27412 -0.172891 -0.977927 -0.117333 122 123 125
11.3938 2.69532 2.24766 -0.111266 -0.972863 -0.202871 128 130 131
11.4299 2.69793 2.22886 -0.0518945 -0.971953 -0.229377 129 130 132
11.4636 2.68927 2.24448 -0.0852735 -0.972436 -0.217019 128 129 131
11.4934 2.68619 2.21238 -0.0852871 -0.972495 -0.216749 128 130 132
11.6359 2.6633 2.21837 -0.0393758 -0.936938 -0.347271 120 122 123
11.6428 2.68209 2.20858 -0.0782424 -0.889827 -0.449539 118 119 122
11.6937 2.6898 2.26361 -0.0598631 -0.949546 -0.307862 114 114 117
11.7263 2.7033 2.25623 0.174872 -0.815231 -0.552103 157 162 164
11.7629 2.69782 2.27447 -0.00160986 -0.961708 -0.274072 162 168 169
11.8341 2.69772 2.27824 -0.0412152 -0.994896 -0.0921018 131 132 132
11.8651 2.72039 2.29036 -0.0744703 -0.98202 -0.173467 131 132 133
11.9229 2.68387 2.27353 -0.0719946 -0.994156 -0.0804356 123 124 126
7.81495 2.72808 2.08051 0.086134 -0.992044 -0.0918108 89 88 91
8.29812 2.73603 2.14587 0.749636 -0.640091 -0.168316 52 53 58
8.30281 2.707 2.08963 0.808469 -0.568154 -0.153554 52 53 57
8.33863 2.74005 2.16235 0.109789 -0.993561 -0.0279895 51 51 56
8.44452 2.72269 2.11428 0.0376193 -0.99479 -0.0947493 86 84 84
8.48061 2.73304 2.11975 0.0686252 -0.989773 -0.125058 95 94 91
8.52618 2.73568 2.15406 0.0773188 -0.986397 -0.145063 109 107 105
8.62285 2.74594 2.16904 0.63588 -0.73669 -0.230097 126 125 126
8.70853 2.71927 2.11136 0.0931538 -0.995136 -0.0320309 128 128 129
8.74815 2.72607 2.14745 0.0767314 -0.988618 -0.129412 126 127 128
9.65188 2.70865 2.14062 0.0100128 -0.998981 -0.0440185 128 128 131
9.71529 2.7091 2.14133 0.0974218 -0.98324 -0.154103 128 128 131
9.73149 2.70797 2.12715 -0.0262337 -0.997468 -0.0661012 127 127 130
9.79957 2.68304 2.08803 0.0376919 -0.937432 -0.346121 127 127 130
9.87303 2.68488 2.08736 0.00170172 -0.974272 -0.225367 160 157 154
9.90462 2.68937 2.12253 0.250832 -0.388941 -0.886458 157 154 152
9.94353 2.70116 2.12111 0.50353 -0.449698 -0.737719 129 127 125
9.97242 2.70098 2.12286 -0.00947743 -0.578433 -0.815675 127 125 124
10.001 2.69692 2.15037 0.0134704 -0.977435 -0.210808 149 146 142
10.0409 2.70141 2.12538 0.026442 -0.976859 -0.212246 126 126 127
10.0491 2.69885 2.16279 0.242845 -0.931274 -0.27158 134 132 131
10.0824 2.7001 2.15468 -0.0459757 -0.989425 -0.137567 123 124 125
10.1077 2.71463 2.15672 0.335991 -0.891409 -0.304137 124 125 127
10.1741 2.70534 2.16248 -0.163328 -0.970341 -0.178219 130 131 133
10.2227 2.71054 2.15899 -0.0793822 -0.978055 -0.192632 127 127 129
10.3203 2.70835 2.17414 0.00801819 -0.976363 -0.21599 131 131 134
10.3969 2.70646 2.17104 0.00357412 -0.976177 -0.216948 133 133 135
10.4534 2.69889 2.13925 -0.0427394 -0.998032 -0.0458864 129 129 131
10.4947 2.70184 2.17236 -0.0183898 -0.997178 -0.0727886 129 129 131
10.5373 2.70063 2.19288 0.090594 -0.991468 -0.0937202 135 135 136
10.5794 2.6998 2.15265 -0.0366587 -0.998048 -0.0505544 134 134 136
10.6245 2.69835 2.18112 -0.032999 -0.997947 -0.0548866 125 125 128
10.6713 2.70231 2.15881 -0.172289 -0.885696 -0.431113 128 129 131
10.7157 2.69576 2.16889 0.110463 -0.986696 -0.119283 128 129 131
10.742 2.70371 2.19624 0.245396 -0.921277 -0.301713 127 127 129
11.0217 2.70813 2.22294 0.021238 -0.829857 -0.557572 122 123 124
11.058 2.7234 2.21349 0.0595803 -0.787802 -0.613041 126 127 129
11.0811 2.69362 2.15751 -0.0573419 -0.996823 -0.0552709 130 130 133
11.1218 2.69454 2.18787 -0.0479883 -0.996909 -0.0622085 129 129 131
11.1564 2.6947 2.16335 -0.0290903 -0.997209 -0.068756 127 128 130
11.1657 2.69474 2.16412 -0.0314046 -0.997179 -0.0681695 128 129 132
11.2476 2.69112 2.16727 -0.129366 -0.991086 -0.0318251 124 125 127
11.2912 2.71938 2.25884 -0.0179205 -0.950456 -0.310342 118 120 121
11.3094 2.70783 2.20425 -0.103034 -0.947687 -0.302115 124 124 126
11.3566 2.70308 2.22628 -0.115625 -0.973341 -0.198088 123 125 127
11.392 2.70241 2.2022 -0.16651 -0.97022 -0.175921 123 124 126
11.4377 2.70662 2.19531 0.0522757 -0.958928 -0.278792 120 120 122
11.4628 2.69754 2.20299 -0.122416 -0.972813 -0.196594 124 125 128
11.4867 2.68187 2.1649 0.380277 -0.855414 -0.351649 120 121 124
11.5656 2.67372 2.18524 0.441944 -0.78907 -0.426678 120 122 123
11.593 2.68316 2.17034 0.467917 -0.461967 -0.753419 122 123 126
11.6167 2.68739 2.19282 0.560963 -0.559255 -0.610372 120 122 125
11.6472 2.70515 2.20073 0.3936 -0.786956 -0.475162 154 158 161
11.6945 2.70182 2.23027 0.0706764 -0.949992 -0.304172 149 153 156
11.6892 2.70132 2.22659 0.0325537 -0.958905 -0.281852 147 151 154
11.7291 2.7132 2.22159 -0.0316781 -0.848074 -0.52893 125 126 128
11.725 2.71093 2.21816 0.124327 -0.952306 -0.278667 127 128 130
11.7636 2.70596 2.23638 0.129392 -0.973564 -0.18823 129 130 131
11.791 2.71498 2.27208 0.168926 -0.935157 -0.311361 127 128 129
11.8251 2.72588 2.27064 -0.13584 -0.962035 -0.23672 124 125 127
11.9679 2.69352 2.19727 -0.247891 -0.9644 -0.0921062 121 123 124
7.46039 2.73282 2.04869 0.759443 -0.648169 -0.0558965 113 113 115
7.78771 2.72779 2.05464 0.123602 -0.991672 -0.0361843 89 90 91
7.85447 2.73431 2.05862 0.450517 -0.883767 -0.126452 52 53 58
8.30938 2.71694 2.02962 0.189774 -0.966824 -0.170987 58 57 62
8.32917 2.73838 2.08987 0.825058 -0.525803 -0.206908 62 61 65
8.34565 2.71908 2.05524 0.191087 -0.943603 -0.270368 63 61 65
8.5767 2.73062 2.0701 0.37515 -0.918839 -0.122467 126 127 126
8.5767 2.73062 2.0701 0.37515 -0.918839 -0.122467 126 127 126
8.61849 2.72851 2.07743 0.111221 -0.986333 -0.121557 126 127 128
8.63419 2.75776 2.11837 0.744337 -0.615642 -0.258743 127 127 129
8.66194 2.72536 2.05796 0.507655 -0.838119 -0.199609 126 126 128
8.66213 2.72435 2.05555 0.387672 -0.897901 -0.208531 126 127 129
8.68376 2.72606 2.07199 0.647633 -0.703422 -0.292864 127 128 130
8.68389 2.72531 2.07019 0.669418 -0.674889 -0.31049 127 128 130
8.68389 2.72531 2.07019 0.669418 -0.674889 -0.31049 127 128 130
8.76135 2.72231 2.09194 0.0216738 -0.995968 -0.0870551 126 126 128
9.60149 2.71234 2.11958 -0.0388527 -0.995756 -0.0834338 128 129 131
9.65615 2.70873 2.08201 0.0729346 -0.993466 -0.087778 125 126 127
9.69568 2.70973 2.09539 -0.057384 -0.977312 -0.203882 126 126 128
9.725 2.69474 2.05307 0.0609262 -0.847432 -0.527397 133 132 133
9.76541 2.6937 2.07976 -0.00590149 -0.979453 -0.201585 128 128 130
9.8341 2.69206 2.07101 0.0353754 -0.925126 -0.378009 163 160 157
9.91413 2.69268 2.07248 -0.0122604 -0.964735 -0.262939 125 123 123
9.99313 2.70301 2.09101 -0.0106219 -0.979202 -0.202609 119 119 121
10.0844 2.71407 2.1191 0.0316428 -0.976785 -0.211871 128 129 131
10.1387 2.70921 2.13541 0.0284183 -0.976284 -0.214619 122 122 125
10.1744 2.71507 2.11397 -0.154339 -0.972348 -0.175269 122 122 124
10.2315 2.71055 2.10144 -0.0483569 -0.989896 -0.133294 122 123 125
10.2744 2.70729 2.13418 -0.0254264 -0.989546 -0.141961 130 130 132
10.3151 2.70995 2.11142 -0.055837 -0.978992 -0.196106 124 124 127
10.3549 2.70825 2.1396 0.00976576 -0.976433 -0.215597 128 128 131
10.3936 2.71418 2.12008 0.00704018 -0.976847 -0.213822 123 123 125
10.4336 2.70899 2.14359 0.0200303 -0.975061 -0.221033 125 125 128
10.4991 2.70144 2.11556 -0.0443755 -0.998052 -0.0438547 129 129 131
10.5385 2.70344 2.14383 -0.0789796 -0.995752 -0.047332 124 125 125
10.6292 2.69424 2.11913 -0.190677 -0.968697 -0.158958 122 122 124
10.7734 2.72866 2.18614 0.243981 -0.954533 -0.171292 163 161 157
10.924 2.69788 2.10694 -0.000855938 -0.997654 -0.0684556 123 123 126
10.963 2.69774 2.12932 0.0568682 -0.993815 -0.0953819 131 133 134
11.0456 2.69615 2.13392 -0.0525547 -0.997147 -0.0541771 127 129 130
11.2065 2.6949 2.13976 -0.0222919 -0.996434 -0.0813793 129 130 131
11.2469 2.69605 2.11983 -0.109348 -0.991346 -0.0726418 127 128 130
11.3468 2.70625 2.16547 -0.0399924 -0.972801 -0.228162 118 119 121
11.4977 2.67539 2.10562 0.572839 -0.408575 -0.710578 122 123 126
11.5178 2.68634 2.13899 0.401876 -0.835219 -0.375373 117 118 121
11.5431 2.6804 2.13228 0.591009 -0.405936 -0.697083 120 121 124
11.5677 2.68225 2.1522 0.587712 -0.423867 -0.689153 117 119 122
11.5881 2.7023 2.14478 0.584423 -0.405732 -0.702731 161 166 168
11.6113 2.70828 2.171 0.543785 -0.531447 -0.649509 163 167 170
11.6757 2.72298 2.19637 0.31429 -0.82875 -0.463028 123 124 125
11.6938 2.71071 2.19596 0.127804 -0.949203 -0.287542 127 128 129
11.7348 2.70669 2.16845 0.0783183 -0.965508 -0.248317 128 129 130
11.7567 2.7338 2.22454 0.0941745 -0.842516 -0.530375 129 130 133
11.7806 2.68507 2.12849 -0.0748605 -0.995099 -0.0645987 130 132 134
11.8867 2.69444 2.15082 -0.153909 -0.96322 -0.220271 121 122 124
11.922 2.70404 2.17599 -0.00984741 -0.963307 -0.268221 121 123 124
11.9279 2.68161 2.14899 -0.283655 -0.767262 -0.575194 125 126 128
11.9664 2.6927 2.14655 -0.0728965 -0.982567 -0.171018 120 121 122
12.0034 2.68988 2.16132 0.309929 -0.803273 -0.508622 131 133 133
7.80803 2.72814 2.00044 0.0818966 -0.993258 -0.0820516 64 64 67
7.85628 2.74748 2.01964 0.768 -0.638277 -0.0527167 46 48 55
8.35088 2.72906 2.01023 0.114485 -0.98701 -0.112711 109 108 106
8.39251 2.73168 2.04025 0.118075 -0.976979 -0.17768 126 125 124
8.81834 2.72354 2.05689 0.00875054 -0.995556 -0.0937631 129 129 131
8.87834 2.72282 2.01867 0.0712441 -0.997121 -0.0259592 125 126 128
9.53941 2.71228 2.03963 0.0168956 -0.99921 -0.0359799 134 134 137
9.66059 2.71604 2.0395 0.398479 -0.863686 -0.308644 139 139 140
9.69003 2.72314 2.06353 0.32182 -0.925798 -0.198318 149 149 149
9.76319 2.705 2.0409 -0.0158355 -0.955019 -0.296123 157 154 149
9.80034 2.70022 2.05643 0.0857544 -0.968426 -0.234089 156 154 150
9.83841 2.7077 2.04161 0.0652549 -0.829542 -0.554619 122 121 122
9.87301 2.6952 2.04237 0.0145293 -0.960357 -0.278393 126 125 126
9.91393 2.71 2.04432 0.0582709 -0.970793 -0.232733 123 123 124
9.9535 2.70945 2.07155 0.0590592 -0.974935 -0.214509 127 127 129
9.99303 2.71219 2.04501 -0.032187 -0.980627 -0.19322 119 119 121
10.0384 2.71818 2.09442 0.204252 -0.945887 -0.252147 128 129 131
10.0804 2.71838 2.09089 -0.342229 -0.926556 -0.156117 124 124 126
10.2722 2.71282 2.07938 -0.0698614 -0.979243 -0.190271 129 129 132
10.3515 2.71231 2.08333 -0.00453492 -0.975786 -0.218678 122 123 125
10.4123 2.70027 2.05538 0.168529 -0.979883 -0.106895 120 121 122
10.4359 2.72568 2.11453 0.0888593 -0.922822 -0.374838 123 124 125
10.4359 2.72568 2.11453 0.0888593 -0.922822 -0.374838 123 124 125
10.4968 2.70197 2.0508 0.0434826 -0.996916 -0.0653324 117 117 120
10.54 2.70427 2.08479 -0.0479151 -0.998022 -0.0406963 119 119 121
10.5871 2.70558 2.09461 -0.254695 -0.953073 -0.163651 131 131 133
10.7837 2.72769 2.12083 0.0610509 -0.994606 -0.0838513 124 124 126
10.7558 2.70772 2.0739 0.116568 -0.987568 -0.105458 125 125 125
10.8141 2.73247 2.16125 0.0680862 -0.993613 -0.0899845 128 129 128
10.8431 2.69848 2.05791 0.0481733 -0.994895 -0.0886748 121 122 124
10.8844 2.69598 2.07856 0.0356064 -0.996161 -0.079967 118 119 122
10.9658 2.69836 2.07633 0.0346077 -0.995948 -0.0830087 122 123 124
11.0034 2.69746 2.10605 -0.0885278 -0.988789 -0.120244 124 125 127
11.1266 2.69664 2.08517 -0.00770032 -0.997429 -0.0712457 127 128 130
11.1643 2.69527 2.10935 -0.0388595 -0.997373 -0.061125 123 124 126
11.2074 2.69664 2.08845 -0.000603959 -0.997014 -0.077222 117 117 120
11.2854 2.69472 2.09812 -0.0316953 -0.997249 -0.0669999 119 120 122
11.4322 2.69115 2.07542 0.360663 -0.871386 -0.332578 126 126 128
11.4614 2.68904 2.08733 0.341119 -0.777382 -0.528503 127 128 129
11.4979 2.70327 2.09207 0.515648 -0.656431 -0.55064 134 137 139
11.4759 2.6794 2.08597 0.536585 -0.387166 -0.749786 120 121 123
11.5344 2.70918 2.11881 0.592054 -0.402368 -0.698264 158 161 164
11.5591 2.7108 2.13825 0.331688 -0.472591 -0.816481 150 155 158
11.6121 2.72257 2.14589 0.523508 -0.658632 -0.540502 125 126 128
11.6484 2.72163 2.17552 0.394194 -0.755826 -0.522817 128 129 131
11.6463 2.70672 2.11029 0.104253 -0.941491 -0.32051 124 125 127
11.6912 2.72071 2.15969 0.128349 -0.895989 -0.425124 119 120 121
11.7114 2.71235 2.16081 0.158036 -0.920243 -0.358018 121 122 124
11.7807 2.68754 2.08223 -0.0740997 -0.995353 -0.0615034 119 120 122
11.8191 2.68464 2.10753 -0.0805566 -0.99485 -0.0615077 132 133 136
11.9021 2.69951 2.10666 0.0142939 -0.959776 -0.280403 117 119 120
11.9328 2.69506 2.12403 0.0116436 -0.959382 -0.28187 120 121 123
11.9643 2.70111 2.10909 0.00947693 -0.956683 -0.290976 118 119 121
12.005 2.70733 2.13832 0.290467 -0.739643 -0.60709 119 119 121
12.0209 2.69961 2.13972 0.257509 -0.876828 -0.406031 123 123 125
12.0494 2.70231 2.13019 0.102824 -0.931492 -0.348928 116 118 120
7.78071 2.73299 1.93857 0.366434 -0.913494 -0.176792 57 57 62
7.81475 2.73342 1.9473 0.458671 -0.886582 -0.059946 60 60 63
7.84525 2.7358 1.98048 0.509453 -0.853749 -0.107564 48 49 56
8.3948 2.73331 1.97505 0.23741 -0.957486 -0.163879 120 119 118
8.43802 2.7304 1.99197 0.129611 -0.976159 -0.174112 128 128 126
8.66205 2.73445 2.01465 0.356192 -0.916784 -0.180648 127 128 129
8.77322 2.72443 1.9607 -0.01022 -0.993615 -0.112356 127 129 130
8.82602 2.72259 1.98877 0.0317751 -0.996231 -0.0807147 124 125 127
9.57806 2.71321 2.00194 0.141982 -0.978878 -0.147105 123 122 125
9.60808 2.71168 2.01713 0.253198 -0.951795 -0.173139 125 125 127
9.69525 2.72689 2.01718 0.246797 -0.951802 -0.182112 131 129 127
9.72787 2.71835 2.03262 0.00483497 -0.917426 -0.397877 138 135 132
9.7731 2.71086 2.01913 0.18988 -0.967299 -0.168161 132 131 132
9.80791 2.71127 2.01666 0.113951 -0.969639 -0.216367 118 118 121
9.87624 2.71428 2.02071 0.0363969 -0.914867 -0.402111 128 129 130
9.95095 2.71455 2.01508 0.0271588 -0.979013 -0.201978 124 125 126
10.0392 2.72273 2.03732 -0.394449 -0.877968 -0.271262 121 121 124
10.0741 2.71791 2.01936 -0.302373 -0.941049 -0.151648 124 124 127
10.1194 2.71752 2.01293 -0.369243 -0.917877 -0.145469 119 119 122
10.3144 2.71752 2.06313 0.0687588 -0.97181 -0.225514 122 122 125
10.3698 2.70344 2.0416 -0.0995709 -0.992879 -0.0653952 126 127 129
10.4172 2.69788 2.0035 0.313841 -0.934174 -0.169771 125 127 128
10.455 2.70086 2.02519 0.153433 -0.982879 -0.102017 121 121 123
10.5338 2.71565 2.04139 0.321889 -0.905562 -0.276304 133 133 134
10.6024 2.71848 2.03466 -0.216433 -0.901906 -0.373795 149 147 143
10.6359 2.70594 2.05548 -0.087505 -0.995445 -0.0378431 155 154 151
10.6817 2.71745 2.04458 -0.0810513 -0.996316 -0.0280329 122 123 123
10.8043 2.69784 2.03419 0.0730027 -0.99341 -0.0883642 131 132 134
10.8447 2.69984 2.00946 0.0380197 -0.996557 -0.0736845 122 123 126
10.9265 2.69864 2.05318 -0.0971689 -0.99483 -0.0295375 118 119 121
10.9682 2.69792 2.02576 -0.0762166 -0.99602 -0.0462147 116 117 119
11.0048 2.70056 2.05609 -0.035966 -0.99794 -0.0531231 127 127 130
11.0466 2.69958 2.03815 -0.0528478 -0.997376 -0.0494829 128 129 131
11.0882 2.69489 2.0574 0.00269309 -0.997343 -0.0727933 125 126 128
11.1217 2.70277 2.04068 -0.145458 -0.988749 -0.0348981 122 122 125
11.2498 2.69672 2.06729 -0.156149 -0.977496 -0.141844 125 127 128
11.2875 2.69529 2.03817 0.126014 -0.981715 -0.142674 116 117 121
11.3199 2.6848 2.0432 0.233003 -0.948801 -0.213276 122 124 126
11.349 2.69332 2.02634 0.0662011 -0.991371 -0.113141 128 129 131
11.4062 2.6896 2.05381 0.376459 -0.863982 -0.334387 118 118 121
11.4285 2.70388 2.04275 0.36845 -0.771534 -0.518632 133 135 138
11.4511 2.70162 2.05718 0.427281 -0.767822 -0.477368 129 130 133
11.5308 2.7281 2.09694 0.580786 -0.25392 -0.773442 129 130 133
11.519 2.71361 2.07379 0.32201 -0.831975 -0.451804 132 132 135
11.5531 2.72747 2.10856 0.573912 -0.346319 -0.742084 126 127 129
11.5797 2.73032 2.13021 0.562003 -0.402215 -0.722755 132 133 135
11.6146 2.74303 2.12274 0.401409 -0.832589 -0.381663 125 126 128
11.6345 2.74565 2.15049 0.507024 -0.62547 -0.593055 119 120 122
11.8197 2.68661 2.06015 -0.158353 -0.983778 -0.0842961 123 125 127
11.9002 2.68135 2.03308 0.0481819 -0.929736 -0.365061 118 119 122
11.9934 2.70572 2.0908 -0.0236566 -0.963282 -0.267447 112 114 116
7.63185 2.72095 1.85701 0.699602 -0.667879 -0.253957 118 118 119
7.67261 2.72866 1.88428 0.250131 -0.958549 -0.136445 113 113 113
7.70084 2.71736 1.89131 0.628257 -0.739395 -0.24205 108 109 109
7.80255 2.74526 1.9076 0.0680662 -0.162318 -0.984388 50 52 57
7.8808 2.73883 1.92586 0.399789 -0.916408 0.0191257 46 47 54
8.43875 2.73648 1.93821 0.067106 -0.98212 -0.175887 128 128 128
8.82974 2.72477 1.92606 0.0906384 -0.994628 -0.0500008 118 119 121
9.57546 2.71474 1.94485 0.319398 -0.929755 -0.183141 164 161 158
9.6062 2.71712 1.96718 0.285495 -0.885352 -0.366938 156 154 152
9.66129 2.72688 2.00385 0.140147 -0.976555 -0.163401 153 152 149
9.72357 2.71696 1.96759 0.00557286 -0.981651 -0.190607 129 129 131
9.72361 2.71711 1.96785 0.0153874 -0.981251 -0.192119 129 129 131
9.72361 2.71711 1.96785 0.0153874 -0.981251 -0.192119 129 130 132
9.77262 2.72046 1.98038 0.357105 -0.893437 -0.272481 128 128 131
9.79757 2.71207 1.96851 0.363484 -0.889421 -0.277147 126 127 130
9.83528 2.71788 1.99369 0.334749 -0.902295 -0.271676 122 123 126
9.9056 2.71521 1.98109 -0.124914 -0.976764 -0.174148 119 118 120
9.98921 2.71027 1.96764 -0.018223 -0.999413 -0.0290197 124 124 128
10.0804 2.70843 1.96204 0.036443 -0.998376 -0.0437949 119 119 123
10.2218 2.70735 1.97787 -0.0205632 -0.991059 -0.13183 121 120 123
10.2602 2.70791 1.95107 -0.0511356 -0.980892 -0.187714 122 123 125
10.3071 2.71466 1.9935 0.137142 -0.960195 -0.243345 128 128 131
10.3071 2.71466 1.9935 0.137142 -0.960195 -0.243345 128 128 131
10.3071 2.71466 1.9935 0.137142 -0.960195 -0.243345 128 128 131
10.4501 2.71246 1.99014 0.0551841 -0.965456 -0.254654 127 127 128
10.4203 2.70047 1.96074 0.29958 -0.940504 -0.160323 127 128 129
10.4953 2.70732 2.0045 0.0860277 -0.966854 -0.240399 124 123 125
10.523 2.72231 1.99696 0.330398 -0.755953 -0.565131 167 166 162
10.5695 2.72229 2.01553 0.190063 -0.974372 -0.120314 144 141 138
10.6411 2.71524 2.00478 -0.107188 -0.993275 -0.0437652 123 123 123
10.765 2.70017 1.96329 -0.00105018 -0.998612 -0.052669 125 127 129
10.8052 2.69948 1.98578 0.0364883 -0.996884 -0.0699382 126 127 129
10.8851 2.70152 1.97467 0.0130296 -0.997907 -0.0633405 118 119 122
10.9267 2.69833 1.99561 0.00762032 -0.997936 -0.063761 124 124 127
10.9689 2.69909 1.97361 -0.0573488 -0.99763 -0.0380211 123 125 127
11.0099 2.69979 2.00508 -0.0942959 -0.99515 -0.0280119 128 129 130
11.0519 2.69919 1.98868 -0.0549784 -0.997598 -0.0421343 123 124 126
11.0884 2.69796 2.01102 0.0123372 -0.99245 -0.122026 128 129 131
11.1287 2.69874 1.97818 -0.119835 -0.990224 -0.071392 128 129 131
11.1716 2.69713 2.01028 -0.129182 -0.991403 -0.0208123 119 119 122
11.3176 2.70181 2.01885 0.220124 -0.907381 -0.358056 119 120 123
11.3183 2.70243 2.02034 0.229198 -0.9029 -0.363647 119 120 123
11.3183 2.70243 2.02034 0.229198 -0.9029 -0.363647 119 120 123
11.456 2.71757 2.03184 0.20833 -0.930122 -0.302441 142 142 144
11.4877 2.71929 2.05569 0.297996 -0.88909 -0.347444 132 133 135
11.5149 2.72047 2.03225 -0.0337035 -0.946671 -0.320435 130 131 133
11.5709 2.75245 2.10751 0.577277 -0.366786 -0.729533 124 125 127
11.5441 2.71247 2.04598 -0.0656095 -0.904345 -0.421729 130 132 133
11.5692 2.71389 2.02276 -0.288006 -0.876014 -0.386848 117 119 121
11.6418 2.71411 2.06937 -0.0851257 -0.91322 -0.398476 122 124 125
11.8307 2.70822 2.02676 -0.276114 -0.800827 -0.531448 118 120 122
11.8545 2.69262 2.02776 -0.112266 -0.97565 -0.188426 126 128 130
11.9011 2.68839 2.01611 -0.0336861 -0.967369 -0.251121 118 119 121
11.8875 2.69115 2.00705 -0.203596 -0.974888 -0.0902301 124 125 127
