ply
format ascii 1.0
element vertex 707
property float x
property float y
property float z
property float nx
property float ny
property float nz
property uchar diffuse_red
property uchar diffuse_green
property uchar diffuse_blue
end_header
-0.437552 2.60009 10.3645 0.124499 -0.959325 -0.253368 239 219 151
-0.438161 2.58697 10.2695 -0.288142 -0.842045 -0.455998 229 211 153
-0.405994 2.59091 10.2533 -0.150117 -0.85889 -0.489666 203 189 149
-0.382668 2.60875 10.2124 -0.0893731 -0.481431 -0.871916 164 158 150
-0.374034 2.60307 10.2022 -0.00659034 -0.954259 -0.298908 163 158 152
-0.35604 2.59943 10.1774 -0.281486 -0.797519 -0.533601 155 151 147
-0.377288 2.60164 10.1328 0.00081268 -0.953336 -0.301912 144 143 144
-0.332072 2.60497 10.1226 0.115361 -0.861898 -0.493784 146 144 146
-0.345265 2.6079 10.0887 0.0248946 -0.93694 -0.348603 139 139 141
-0.327084 2.60443 10.0627 0.133255 -0.962387 -0.236759 140 139 141
-0.314304 2.60359 10.0129 0.0133763 -0.997563 -0.0684737 147 146 148
-0.327954 2.59859 9.95911 -0.385712 -0.91219 -0.138331 142 140 142
-0.279741 2.60351 9.94726 -0.0235851 -0.957967 -0.285907 140 139 141
-0.300758 2.60312 9.90583 0.0544151 -0.991381 -0.119175 145 144 146
-0.27809 2.60899 9.86671 -0.0587142 -0.995593 -0.0731221 132 131 133
0.0165538 2.62049 9.07699 -0.0813331 -0.99667 0.00577459 161 160 161
0.0242986 2.6186 9.04512 -0.0337236 -0.997417 0.0634207 147 145 148
0.0128576 2.61274 8.99885 0.0576586 -0.894625 -0.443082 158 157 160
0.0342948 2.61666 8.9679 -0.776895 -0.449837 -0.440545 143 142 144
-0.609998 2.59214 10.7268 0.0282451 -0.988724 -0.14706 152 147 142
-0.573716 2.59856 10.7007 -0.0811975 -0.975381 -0.205034 163 156 145
-0.581739 2.59975 10.6597 -0.063444 -0.973339 -0.220422 184 168 140
-0.54257 2.60181 10.647 -0.255395 -0.937677 -0.23566 183 166 132
-0.574896 2.58645 10.5764 -0.168066 -0.960745 -0.220733 202 181 133
-0.566911 2.59333 10.5781 -0.0734124 -0.974912 -0.210138 206 184 132
-0.524147 2.59925 10.5604 -0.0982145 -0.986837 -0.128479 204 182 128
-0.503041 2.59991 10.496 0.0468019 -0.935927 -0.34907 246 224 126
-0.522991 2.59528 10.436 0.139098 -0.865114 -0.481901 246 223 132
-0.511105 2.5939 10.4086 0.0337299 -0.940849 -0.337143 246 225 143
-0.507793 2.5956 10.4077 -0.0431898 -0.999058 -0.00423461 247 228 148
-0.510166 2.58118 10.3095 -0.60334 -0.459248 -0.651976 239 220 157
-0.46348 2.58746 10.289 0.109452 -0.907141 -0.406344 236 217 154
-0.46748 2.59984 10.2563 -0.162816 -0.874999 -0.455926 167 158 144
-0.44117 2.59923 10.2364 -0.247078 -0.87487 -0.4166 165 159 149
-0.41504 2.60177 10.2215 -0.424535 -0.726389 -0.540489 154 149 144
-0.449515 2.59408 10.1662 -0.199732 -0.951747 -0.232991 159 157 156
-0.392576 2.6072 10.1596 0.0709029 -0.934605 -0.348549 141 140 140
-0.381227 2.60047 10.1097 0.0314321 -0.950273 -0.309828 153 152 154
-0.389216 2.60976 10.0623 0.0847384 -0.897358 -0.43309 150 149 150
-0.361412 2.60328 9.99336 -0.00961851 -0.981581 -0.190807 144 144 144
-0.356714 2.60663 9.977 0.0518142 -0.992621 -0.10963 137 136 138
-0.336182 2.59798 9.91806 -0.553156 -0.833011 0.0105486 139 138 140
-0.322899 2.60165 9.87049 -0.359814 -0.898568 -0.251215 140 139 142
-0.0385734 2.62015 9.0791 -0.188622 -0.981595 0.0298666 150 148 152
-0.0354569 2.6154 9.04535 -0.447035 -0.878532 0.168348 150 148 151
-0.0159969 2.62109 9.01907 -0.0118908 -0.999442 0.0312233 138 135 139
-0.0265626 2.62244 8.97333 0.0944013 -0.964665 -0.245986 143 141 143
0.00941752 2.63139 8.96218 -0.680748 -0.541506 -0.493309 144 141 144
0.0288275 2.62796 8.94404 -0.0355021 -0.978031 -0.205416 147 146 148
-0.607627 2.60697 10.6957 -0.231988 -0.906295 -0.353286 193 176 143
-0.639529 2.59295 10.6242 0.0194745 -0.995872 -0.0886601 213 191 138
-0.589988 2.60266 10.6142 -0.0906315 -0.977719 -0.189345 204 181 130
-0.600951 2.60313 10.5668 -0.0720155 -0.997202 0.0200337 237 214 130
-0.573932 2.59621 10.5381 -0.0661421 -0.975154 -0.211422 240 216 125
-0.575377 2.60441 10.4937 -0.013591 -0.962996 -0.269174 242 219 129
-0.538717 2.6081 10.4773 0.170234 -0.836657 -0.520601 248 225 129
-0.570997 2.58382 10.3708 -0.334289 -0.520949 -0.785406 244 225 154
-0.562703 2.57656 10.3397 -0.449865 -0.612789 -0.649701 235 216 147
-0.537963 2.59454 10.2984 -0.400345 -0.293468 -0.868102 210 195 148
-0.536217 2.57864 10.322 -0.361309 -0.65177 -0.666822 233 213 147
-0.495679 2.59727 10.2755 -0.0695564 -0.820377 -0.567576 175 163 140
-0.476716 2.60935 10.2206 -0.25134 -0.566903 -0.784506 155 152 150
-0.458042 2.60422 10.1972 -0.413919 -0.670285 -0.615945 141 139 138
-0.451822 2.60124 10.128 -0.0672715 -0.978775 -0.193583 153 152 152
-0.396327 2.60325 10.0091 -0.175492 -0.982239 -0.066407 148 147 148
-0.415728 2.59713 9.95681 -0.222243 -0.952176 -0.209689 138 137 138
-0.371143 2.60154 9.93064 0.0490811 -0.993497 -0.10274 136 135 137
-0.397256 2.59923 9.89039 -0.168236 -0.948422 -0.268685 143 142 144
-0.358873 2.60137 9.88156 -0.358391 -0.907911 -0.217378 133 131 133
-0.355237 2.61168 9.85227 -0.180635 -0.974296 0.134606 141 140 142
-0.0780321 2.62281 9.05332 -0.450793 -0.891163 0.051126 161 159 161
-0.0856498 2.61527 9.00233 -0.744005 -0.351096 0.568496 152 151 153
-0.0619026 2.62654 9.02575 -0.216392 -0.974027 0.0666724 152 150 153
-0.0285636 2.62383 8.9255 -0.0678246 -0.99519 -0.0706855 148 147 149
-0.671433 2.59502 10.6473 0.0598542 -0.991163 -0.11838 214 193 140
-0.660853 2.59412 10.5631 0.0656475 -0.989641 -0.127678 245 221 126
-0.643863 2.59266 10.5336 -0.0557431 -0.803595 -0.59256 244 219 123
-0.617781 2.59875 10.5111 0.027695 -0.826007 -0.56298 239 215 122
-0.584727 2.60546 10.4524 0.212567 -0.844869 -0.49093 239 219 145
-0.600971 2.59643 10.4259 -0.105498 -0.980545 -0.165535 236 216 147
-0.598995 2.5857 10.3793 0.194377 -0.802969 -0.563434 239 220 150
-0.592256 2.58857 10.3263 -0.24785 -0.854355 -0.45678 232 213 150
-0.563358 2.59136 10.3105 -0.162713 -0.899786 -0.404858 224 206 148
-0.545883 2.60536 10.2675 -0.163977 -0.833845 -0.527081 156 153 149
-0.505174 2.60632 10.2355 -0.307514 -0.814653 -0.491708 153 149 146
-0.524058 2.60548 10.2452 -0.0683709 -0.988367 -0.135854 159 154 149
-0.52845 2.60503 10.1867 -0.306768 -0.809227 -0.501043 146 144 144
-0.524872 2.59808 10.1574 -0.362772 -0.498091 -0.787592 140 138 139
-0.477521 2.6075 10.1529 -0.0629835 -0.975868 -0.209081 148 147 147
-0.442494 2.60282 9.97934 -0.00374115 -0.983794 -0.179262 135 134 137
-0.452176 2.6031 9.93645 0.122421 -0.959576 -0.253429 151 150 151
-0.426021 2.601 9.91123 -0.0829166 -0.952614 -0.292664 148 147 149
-0.388786 2.61302 9.86526 0.0741973 -0.986066 -0.148894 140 139 140
-0.120301 2.62583 9.06117 -0.24815 -0.960891 0.122924 148 147 149
-0.0948227 2.62938 9.02408 -0.77236 -0.296536 0.561717 160 159 162
-0.0241726 2.63444 8.75366 -0.142694 -0.988609 -0.0478694 135 134 138
0.00937732 2.6334 8.73608 0.0553682 -0.99125 -0.119825 137 137 140
-0.65751 2.60346 10.4878 0.224542 -0.863575 -0.451464 233 210 137
-0.635187 2.60662 10.4617 0.23035 -0.906867 -0.35289 237 215 141
-0.664445 2.57857 10.3891 -0.0716085 -0.824143 -0.561837 237 217 153
-0.655816 2.57426 10.3537 0.0467738 -0.729782 -0.682079 235 215 149
-0.62378 2.58377 10.3394 -0.0497186 -0.835141 -0.547784 233 213 146
-0.624929 2.598 10.3102 0.0828371 -0.929537 -0.359304 178 167 142
-0.594619 2.60337 10.2969 -0.24686 -0.825808 -0.507052 163 156 145
-0.565594 2.61061 10.2867 -0.603019 -0.672882 -0.428482 159 155 151
-0.593019 2.60436 10.2394 0.19448 -0.933087 -0.302533 143 141 143
-0.601231 2.59776 10.2293 0.163855 -0.957095 -0.239 138 137 139
-0.581194 2.59715 10.2087 0.0698734 -0.990957 -0.114547 148 147 149
-0.557038 2.60141 10.2008 -0.254692 -0.811694 -0.525628 139 138 138
-0.534641 2.60638 10.1237 0.0883325 -0.98601 -0.141354 137 137 138
-0.46229 2.60588 9.88803 -0.000168234 -0.999703 -0.024369 145 144 145
-0.432897 2.60592 9.87047 -0.225677 -0.916951 -0.329046 145 144 146
-0.451407 2.6039 9.82314 0.0996374 -0.98286 -0.155111 133 132 133
-0.166717 2.62659 9.04831 0.0227128 -0.999679 -0.0111975 140 138 141
-0.162551 2.62806 9.03232 -0.0673687 -0.989037 0.131405 152 151 153
-0.142759 2.62666 8.97965 -0.807504 -0.316911 0.497498 141 140 143
-0.112342 2.63103 8.85909 0.0500714 -0.985731 -0.160708 141 141 144
-0.0696116 2.63077 8.76886 0.0495441 -0.992311 -0.113425 136 136 139
-0.0983643 2.62556 8.77675 0.125589 -0.90914 -0.397104 132 131 135
-0.0828475 2.62589 8.72544 0.0204399 -0.97328 -0.228709 150 150 152
-0.0501672 2.62327 8.70797 -0.183963 -0.970933 -0.153122 132 131 134
0.601785 2.65939 6.84492 -0.180142 -0.96889 -0.169707 136 137 138
0.591625 2.65654 6.80419 -0.174611 -0.981917 -0.0731466 142 142 142
0.592948 2.65287 6.76343 -0.066925 -0.99764 0.0153169 135 136 137
-0.698937 2.60371 10.4765 0.190524 -0.833341 -0.518886 234 213 144
-0.687392 2.5865 10.4184 0.286426 -0.657338 -0.697042 238 218 149
-0.689233 2.59608 10.4363 0.248853 -0.897584 -0.363889 234 213 143
-0.684357 2.59968 10.4433 0.156267 -0.895458 -0.416815 236 216 147
-0.668363 2.59814 10.4149 0.0711841 -0.929453 -0.362007 231 211 149
-0.684247 2.58796 10.3424 -0.364672 -0.499885 -0.785576 221 204 153
-0.658049 2.59732 10.3249 -0.352253 -0.321846 -0.878825 183 172 143
-0.619847 2.60376 10.2533 -0.159505 -0.868436 -0.469444 145 144 144
-0.610329 2.59632 10.224 0.130939 -0.972464 -0.192793 137 136 138
-0.60993 2.59662 10.2244 0.148734 -0.964687 -0.217386 137 136 138
-0.60993 2.59662 10.2244 0.148734 -0.964687 -0.217386 137 136 138
-0.583316 2.59771 10.1495 -0.224509 -0.972624 0.0599865 146 144 144
-0.518014 2.60872 9.91329 -0.145811 -0.980652 0.130616 141 140 143
-0.482419 2.60254 9.83912 -0.127564 -0.990349 0.0541949 145 145 146
-0.19776 2.62255 9.05877 0.0443454 -0.997482 -0.0553492 150 149 152
-0.173549 2.62212 8.98968 -0.194774 -0.980183 -0.0361099 156 155 158
-0.180964 2.63547 8.96331 -0.956749 -0.271113 0.105491 143 142 144
-0.1712 2.62584 8.94176 -0.102045 -0.985775 -0.133543 133 131 134
-0.17859 2.62601 8.89933 -0.0360899 -0.954167 -0.297091 134 133 136
-0.133862 2.62721 8.82095 -0.179907 -0.971205 0.156186 127 126 130
-0.122118 2.62294 8.74595 -0.734414 -0.329244 -0.593494 129 128 131
-0.097851 2.6358 8.70994 -0.608126 -0.180529 -0.773041 134 133 136
-0.081127 2.63068 8.69051 -0.189097 -0.976874 -0.0997938 138 138 140
-0.0828964 2.63318 8.6541 -0.00966078 -0.989521 -0.144064 172 171 171
0.511674 2.65343 6.84186 -0.177567 -0.967832 -0.178246 132 133 134
0.544938 2.65326 6.82427 -0.0667699 -0.997351 -0.0288629 137 137 139
0.545631 2.65374 6.7838 -0.168001 -0.979979 0.106854 132 133 135
0.556231 2.65554 6.74254 -3.67314e-05 -0.997588 0.0694123 142 143 144
-0.756616 2.59304 10.4327 0.287278 -0.661866 -0.692391 235 214 148
-0.747857 2.58399 10.3948 -0.0126188 -0.844554 -0.535321 232 212 150
-0.728945 2.58497 10.3737 -0.238503 -0.704813 -0.668098 235 216 155
-0.708255 2.58914 10.3558 -0.268873 -0.609956 -0.745427 223 207 159
-0.705314 2.60649 10.3341 -0.297909 -0.383144 -0.874329 163 158 151
-0.700737 2.60067 10.2969 0.31542 -0.623946 -0.714983 153 150 145
-0.664483 2.60012 10.2419 -0.778108 -0.534788 0.329469 155 153 155
-0.563377 2.60525 9.91395 -0.122809 -0.985694 -0.115438 147 146 147
-0.56487 2.60664 9.87996 -0.457612 -0.886519 -0.0683803 142 140 142
-0.52905 2.60291 9.87127 0.0480699 -0.996611 -0.0667474 147 146 148
-0.227187 2.62557 9.02247 -0.892739 -0.317434 0.319771 159 158 160
-0.212524 2.63 8.97267 0.0120868 -0.960369 -0.27847 154 154 157
-0.191172 2.63499 8.93853 -0.938287 0.320632 -0.129661 140 140 142
-0.191283 2.62146 8.89178 -0.0317621 -0.998345 -0.0479435 134 133 136
-0.195736 2.6261 8.85461 -0.115204 -0.973007 -0.199964 136 136 139
-0.167885 2.62374 8.8343 -0.299287 -0.898264 -0.32179 132 132 135
-0.180581 2.62558 8.80013 -0.303477 -0.88647 -0.349388 129 129 132
-0.151924 2.62625 8.78479 0.0615759 -0.993977 -0.0906535 130 130 132
-0.161093 2.63118 8.73448 -0.582047 -0.373069 -0.722524 152 152 152
-0.138048 2.63078 8.76555 -0.877235 -0.304315 0.371282 132 131 134
-0.138406 2.63006 8.71854 -0.480423 -0.415106 -0.772581 132 131 134
-0.113037 2.63747 8.67271 -0.254559 -0.964302 -0.0729532 133 132 134
0.480874 2.65829 6.86196 -0.00137338 -0.984951 -0.172828 133 133 134
0.496674 2.65104 6.80475 -0.169175 -0.985585 -0.00166161 146 146 147
0.495004 2.65012 6.76455 -0.162131 -0.986542 0.021156 136 137 138
-0.60442 2.60231 9.92912 0.0663113 -0.993547 -0.0920194 141 140 143
-0.55825 2.61424 9.85269 0.0633263 -0.99443 -0.0842575 144 143 144
-0.563007 2.60521 9.74832 -0.00394447 -0.992435 -0.122707 142 141 143
-0.254527 2.62988 8.98742 -0.878807 -0.268189 0.39468 144 144 147
-0.228343 2.63736 8.94187 -0.682881 -0.727962 -0.0611862 138 137 140
-0.228343 2.63736 8.94187 -0.682881 -0.727962 -0.0611862 138 137 140
-0.237291 2.63291 8.90779 -0.942421 0.271902 -0.194708 131 132 134
-0.256055 2.62467 8.87059 0.0521456 -0.997602 -0.045509 137 138 140
-0.225099 2.62747 8.87429 -0.315108 -0.922501 -0.222931 135 135 138
-0.239611 2.62503 8.83197 -0.0969503 -0.995097 0.0195687 129 129 132
-0.206126 2.6265 8.8142 0.0955163 -0.978797 -0.181201 123 123 126
-0.226509 2.62229 8.78282 -0.761872 -0.236156 -0.603144 126 126 129
-0.175429 2.63856 8.75451 -0.338768 -0.807754 0.482462 127 128 131
-0.210069 2.63047 8.76049 0.135264 -0.920152 -0.367455 123 124 127
-0.181878 2.63576 8.77156 -0.288813 -0.921202 -0.260718 124 124 128
-0.143607 2.63803 8.69453 -0.626532 -0.239442 -0.741704 120 119 124
-0.176743 2.63298 8.66184 -0.112505 -0.989379 -0.0920479 124 124 128
-0.147426 2.6425 8.65402 -0.325359 -0.917318 0.229499 142 142 144
-0.153948 2.62916 8.61555 -0.264061 -0.920153 0.28912 137 137 139
0.46522 2.65543 6.8248 -0.217142 -0.961956 -0.1658 147 148 149
0.455356 2.65395 6.78591 -0.163738 -0.985172 -0.0512527 139 140 140
-0.696678 2.61294 10.1204 0.0553361 -0.995381 -0.0784489 144 143 145
-0.68906 2.61834 10.0707 -0.0843576 -0.984659 -0.15274 138 136 140
-0.64211 2.6361 10.0721 0.144751 -0.969892 -0.195849 141 140 142
-0.644108 2.6031 9.86525 -0.242382 -0.948406 -0.204395 147 146 148
-0.612879 2.60647 9.85998 -0.556953 -0.824199 -0.102463 142 140 143
-0.600837 2.60766 9.81231 0.120875 -0.924785 -0.360781 152 150 152
-0.609229 2.6099 9.77679 0.112971 -0.982711 -0.146688 147 146 149
-0.565956 2.62104 9.77842 0.0478097 -0.997202 -0.0574758 146 145 147
-0.565912 2.62063 9.72611 0.0108957 -0.999306 -0.0356288 150 148 150
-0.32712 2.62574 8.97546 -0.909073 -0.343067 0.236414 128 127 131
-0.293732 2.6117 8.81027 0.0252525 -0.923431 -0.382933 128 128 130
-0.254219 2.62532 8.796 0.0153345 -0.882598 -0.469879 126 125 128
-0.243994 2.63137 8.74989 0.113358 -0.966824 -0.228912 111 111 115
-0.196078 2.64026 8.72465 -0.433006 -0.145323 -0.889599 122 122 125
-0.210334 2.63422 8.68058 -0.0890573 -0.985819 -0.142229 126 126 130
-0.176262 2.63681 8.62428 -0.0803808 -0.993558 -0.0798882 121 121 123
0.381349 2.65359 6.91465 -0.0284237 -0.93418 -0.355667 139 140 140
0.424782 2.6551 6.84545 -0.0190424 -0.960809 -0.276557 138 140 141
0.418997 2.65603 6.80638 -0.171941 -0.978931 -0.11014 137 137 136
-0.736821 2.61596 10.1034 -0.258316 -0.965613 0.0294 135 132 136
-0.741973 2.59622 10.0609 -0.592912 -0.753 -0.285388 150 149 152
-0.726901 2.60209 10.0069 -0.227509 -0.908825 -0.349682 134 134 137
-0.648449 2.64189 10.0341 0.0205717 -0.991346 -0.12965 143 142 144
-0.665446 2.60332 9.91233 -0.0547785 -0.997246 0.0500058 145 143 145
-0.662275 2.60065 9.8259 -0.701413 -0.318822 -0.637473 146 145 147
-0.635723 2.60574 9.78771 -0.783612 -0.268207 -0.560372 149 147 149
-0.613553 2.62235 9.75317 -0.519532 -0.295268 -0.801812 153 151 153
-0.600281 2.61214 9.7311 -0.828366 -0.550699 -0.10267 147 146 148
-0.300268 2.62062 8.73573 -0.369501 -0.15803 -0.915694 115 115 119
-0.254943 2.63965 8.7077 -0.355655 -0.170304 -0.91897 124 124 127
-0.213218 2.63763 8.64183 -0.160695 -0.972149 0.170599 124 125 128
0.249186 2.65149 7.27602 -0.128225 -0.972915 -0.192343 139 140 142
0.226025 2.64861 7.23785 -0.149917 -0.942337 -0.299209 134 134 136
0.325485 2.65611 6.94604 0.0138767 -0.987304 0.158236 126 126 128
0.381043 2.65705 6.82585 -0.0551715 -0.99545 -0.0776924 140 141 140
0.415212 2.65804 6.77005 0.0107627 -0.997321 -0.0723487 134 135 136
0.408438 2.65157 6.69246 -0.107752 -0.993491 -0.0369636 137 137 140
0.415736 2.6541 6.65553 -0.160983 -0.98652 -0.0293854 139 139 140
-0.763214 2.61412 10.0615 0.0128064 -0.999725 -0.0196378 144 143 146
-0.747575 2.60528 10.0281 -0.262699 -0.864617 -0.428284 145 143 146
-0.735406 2.60653 9.96519 -0.315073 -0.943316 -0.104329 147 145 148
-0.668702 2.63409 9.8948 -0.143429 -0.987147 -0.0704965 147 146 148
-0.676416 2.60993 9.84715 -0.173539 -0.87421 -0.453476 155 153 156
-0.684811 2.61592 9.81825 -0.0251339 -0.984231 -0.175094 155 154 156
-0.668627 2.61017 9.79862 -0.598911 -0.378687 -0.705621 168 168 168
-0.65774 2.62802 9.78161 0.0233738 -0.965316 -0.260035 147 145 148
-0.64664 2.61294 9.75868 -0.646873 -0.483406 -0.589808 143 142 145
-0.643695 2.62792 9.71613 0.0558203 -0.995947 -0.070531 163 161 163
-0.368819 2.63826 8.99525 0.0813856 -0.992868 -0.0871166 123 122 126
-0.386083 2.61916 8.94675 -0.82599 -0.247091 0.506643 125 124 128
-0.382699 2.62579 8.89836 -0.0556801 -0.980047 -0.19081 125 126 128
-0.301077 2.63003 8.71352 -0.567958 -0.193187 -0.800064 125 125 128
0.176994 2.6535 7.35358 -0.137066 -0.990389 -0.0185323 125 125 128
0.172562 2.65143 7.31495 -0.137286 -0.990335 -0.019737 139 139 142
0.205043 2.65059 7.25742 -0.138264 -0.987119 -0.080499 141 141 143
0.225246 2.65472 7.19994 -0.142009 -0.97514 -0.170105 120 119 121
0.228086 2.65096 7.1067 -0.14676 -0.975237 -0.165454 138 138 139
0.311542 2.6502 6.90678 -0.152677 -0.986111 -0.0653876 136 136 136
0.311775 2.65295 6.86782 -0.155833 -0.985577 -0.0659893 128 127 129
0.352257 2.65962 6.80826 -0.163931 -0.976851 -0.137434 139 139 139
0.374135 2.65713 6.78974 -0.235229 -0.965246 -0.113874 127 127 128
0.372734 2.65647 6.7502 -0.153977 -0.988062 -0.00496623 136 138 138
0.372169 2.65636 6.71065 -0.155146 -0.987874 -0.00588427 128 128 130
0.373431 2.65525 6.67429 -0.232242 -0.971347 0.0504919 133 133 136
0.40063 2.64953 6.62456 0.00855216 -0.997413 -0.071378 135 136 136
-0.767529 2.62251 10.023 0.0899969 -0.967392 -0.236756 145 144 146
-0.764489 2.60562 9.97637 0.00743687 -0.931441 -0.363816 153 152 154
-0.780205 2.60365 9.93465 -0.405625 -0.849096 -0.338385 150 148 150
-0.703265 2.63769 9.91534 -0.14298 -0.987251 -0.0699439 155 153 155
-0.71165 2.62341 9.82876 -0.0322327 -0.97858 -0.203329 161 159 162
-0.698627 2.61939 9.78439 -0.0214686 -0.999109 0.036342 170 168 170
-0.692665 2.6087 9.72712 -0.78704 -0.305592 -0.535893 154 153 155
-0.674221 2.62229 9.67469 -0.0642283 -0.989068 -0.132735 156 155 158
-0.400028 2.64178 9.0116 0.119607 -0.977339 -0.174651 132 131 134
-0.413944 2.63447 8.96927 -0.221036 -0.971911 -0.0808208 128 128 132
-0.420722 2.63323 8.93119 -0.193082 -0.975451 -0.105903 135 135 139
-0.392537 2.63425 8.91901 -0.417939 -0.285122 -0.862573 130 130 133
-0.388937 2.62864 8.85822 0.0404279 -0.99911 0.0120317 126 126 130
-0.38548 2.63969 8.84768 0.118791 -0.976869 -0.17781 136 136 140
-0.311029 2.65269 8.78133 0.0537162 -0.99184 -0.115618 125 125 128
-0.36698 2.62901 8.73501 -0.363783 -0.372079 -0.853943 123 122 126
-0.314968 2.63959 8.68859 0.0701318 -0.996155 -0.0525154 126 126 130
0.143893 2.65759 7.37284 -0.133112 -0.990775 -0.025405 139 139 141
0.138749 2.65498 7.33408 -0.134137 -0.990931 -0.00793342 134 135 138
0.137237 2.65549 7.29599 -0.137874 -0.942779 -0.303576 138 137 140
0.174804 2.65531 7.27718 -0.137893 -0.988373 -0.0640586 139 140 143
0.18783 2.65322 7.21949 -0.15232 -0.927463 -0.341485 131 131 133
0.182569 2.65645 7.18147 -0.137539 -0.981684 -0.131833 136 136 138
0.215307 2.65681 7.16185 -0.145558 -0.965739 -0.21485 150 149 150
0.206003 2.65939 7.12394 -0.146434 -0.964947 -0.217796 130 130 131
0.217142 2.65029 7.07605 -0.143656 -0.983855 0.106731 139 139 140
0.274219 2.65434 6.88765 -0.189326 -0.981837 0.0123566 127 127 128
0.309225 2.65654 6.82894 -0.159675 -0.978649 -0.129419 138 138 140
0.300679 2.65668 6.79057 -0.174664 -0.964078 -0.200117 136 137 138
0.331147 2.6569 6.7705 -0.164594 -0.976564 -0.138678 141 142 142
0.333766 2.65872 6.73076 -0.150734 -0.988561 -0.00504912 134 134 136
0.335156 2.65874 6.69264 -0.150069 -0.988609 0.0114471 145 146 147
0.362765 2.65138 6.6427 -0.363817 -0.928345 -0.0762389 137 137 138
0.3696 2.65824 6.60959 -0.1648 -0.983087 -0.0798813 136 137 137
-0.829934 2.609 9.99489 0.0170909 -0.967199 -0.253444 142 141 143
-0.797945 2.61172 9.95647 -0.740956 -0.545305 0.391952 148 146 148
-0.811934 2.61165 9.91636 -0.231919 -0.972495 0.0215985 153 152 154
-0.778911 2.60762 9.89891 -0.213526 -0.973901 -0.0769621 164 162 164
-0.721827 2.65713 9.9097 0.0491032 -0.997957 -0.0408861 155 152 155
-0.745611 2.62917 9.81002 -0.0802323 -0.987636 -0.13468 155 153 156
-0.721236 2.62394 9.78101 0.0130949 -0.973236 -0.229435 154 151 154
-0.749087 2.60859 9.73735 -0.571959 -0.374572 -0.729766 161 159 161
-0.724392 2.61437 9.70032 -0.66221 -0.504769 -0.553793 152 151 154
-0.703096 2.61505 9.68598 -0.596027 -0.782189 -0.181472 158 156 158
-0.68212 2.62727 9.64437 0.179549 -0.951871 -0.248404 144 142 144
-0.449976 2.6343 8.9826 -0.0858331 -0.989845 -0.11331 138 138 141
-0.453487 2.63443 8.94677 -0.119571 -0.985681 -0.118897 129 129 133
-0.452169 2.62731 8.8944 -0.109658 -0.992021 -0.062201 125 125 129
-0.417156 2.63355 8.88637 -0.32793 -0.910328 -0.252517 120 120 124
-0.424896 2.63564 8.85411 -0.413026 -0.901835 -0.126903 136 136 140
-0.429104 2.61289 8.78949 -0.0642132 -0.984471 -0.163381 128 128 131
-0.41775 2.61202 8.73575 0.0743675 -0.994785 -0.0697976 125 125 129
-0.401769 2.62185 8.70089 0.0658449 -0.997136 -0.0371967 121 121 124
0.095809 2.65258 7.35236 -0.126958 -0.987304 -0.095458 133 134 137
0.0977441 2.65415 7.31448 -0.139089 -0.990133 -0.0170456 139 138 142
0.120094 2.65661 7.25097 -0.149958 -0.909258 -0.388281 128 129 131
0.13572 2.65641 7.20347 -0.135995 -0.970966 -0.196802 132 132 134
0.163057 2.65531 7.18549 -0.156427 -0.970725 -0.182276 135 134 137
0.162177 2.65733 7.14753 -0.13582 -0.988439 -0.0673866 129 130 130
0.191639 2.65651 7.09306 -0.378813 -0.906743 -0.185253 140 141 142
0.182212 2.65291 7.05451 -0.139045 -0.988439 -0.0604498 130 128 131
0.212893 2.65364 6.95163 -0.139442 -0.984903 0.102573 146 144 143
0.226451 2.65639 6.91548 -0.142214 -0.989513 -0.0252917 127 126 127
0.233087 2.65175 6.87048 -0.140005 -0.980955 0.134629 135 135 136
0.272544 2.65591 6.84874 -0.144444 -0.989387 0.0157946 134 134 135
0.284499 2.65932 6.81875 -0.141199 -0.983457 0.11347 130 130 132
0.287144 2.65739 6.77956 -0.141645 -0.98577 0.0905274 138 139 141
0.290786 2.6593 6.74026 -0.146154 -0.98922 0.00913133 139 139 141
0.323564 2.65817 6.62482 -0.179142 -0.96595 -0.186681 135 136 139
0.360722 2.65775 6.60373 -0.183192 -0.964967 -0.187829 138 139 140
0.349831 2.66126 6.56611 -0.197931 -0.947833 -0.249874 142 144 146
-0.860264 2.62322 10.0194 -0.138327 -0.990293 0.0136074 149 148 150
-0.890808 2.59745 9.99016 -0.351456 -0.917473 -0.186338 150 149 151
-0.855154 2.59972 9.98251 -0.196038 -0.968066 -0.156259 137 137 139
-0.862392 2.60052 9.9483 -0.586695 -0.545943 -0.59811 147 145 148
-0.788457 2.6337 9.90157 -0.0502346 -0.993204 -0.10499 141 139 143
-0.793879 2.62589 9.90369 0.0356197 -0.994197 -0.101508 145 143 146
-0.761542 2.64776 9.88134 0.0765468 -0.994777 -0.0675188 165 164 166
-0.760988 2.64338 9.87699 -0.133028 -0.988541 -0.07135 171 171 172
-0.772174 2.63539 9.83699 0.105451 -0.989016 -0.103575 148 147 150
-0.767484 2.62871 9.77271 0.164602 -0.967003 -0.194452 165 164 164
-0.776861 2.60511 9.72059 -0.0621662 -0.985445 -0.158222 160 159 160
-0.752832 2.6078 9.70883 -0.1307 -0.975091 -0.179206 144 142 146
-0.759594 2.61804 9.68288 0.0551274 -0.944084 -0.325064 150 149 151
-0.74302 2.6151 9.66471 -0.633706 -0.691623 -0.346517 147 145 147
-0.726341 2.61379 9.64575 -0.327279 -0.877989 -0.34932 154 153 154
-0.7154 2.63294 9.62694 0.0226895 -0.997054 -0.0732632 150 149 152
-0.728064 2.62111 9.58084 0.129562 -0.982239 -0.135718 132 131 134
-0.49036 2.63177 8.96187 -0.0778421 -0.989474 -0.121992 131 131 135
-0.473857 2.64842 8.93553 -0.0545482 -0.992712 -0.107461 131 131 135
-0.460192 2.63382 8.90689 -0.285398 -0.945606 0.156131 138 137 141
-0.452792 2.63987 8.86675 -0.175066 -0.967333 0.183355 126 126 130
-0.454882 2.64231 8.83727 -0.599768 -0.794603 0.094258 130 130 134
-0.426613 2.63837 8.82481 -0.0854098 -0.990499 -0.107779 138 138 141
-0.433288 2.63752 8.78399 -0.0828232 -0.98806 -0.129913 118 119 123
-0.433722 2.61438 8.75116 0.00764893 -0.994425 -0.105163 134 135 137
-0.430496 2.62124 8.71239 -0.305072 -0.360248 -0.881562 120 121 125
0.0594266 2.65434 7.40594 -0.129807 -0.991512 0.00732142 123 123 126
0.0560236 2.65369 7.36755 -0.124414 -0.990101 -0.0649632 131 131 134
0.0623645 2.65612 7.33298 -0.122992 -0.982593 -0.139229 134 135 137
0.0979103 2.6549 7.27713 -0.128877 -0.990366 -0.0506473 142 143 144
0.0981975 2.65491 7.20208 -0.137833 -0.954215 -0.265474 133 134 136
0.119208 2.65321 7.16574 -0.137549 -0.970794 -0.196571 134 134 135
0.116573 2.65482 7.12861 -0.143816 -0.985642 -0.0884741 144 144 146
0.155667 2.65608 7.10949 -0.135686 -0.987764 -0.0768901 127 127 128
0.143806 2.65362 7.06968 -0.135514 -0.989748 -0.0451141 140 139 140
0.177087 2.65223 7.01628 -0.139474 -0.988011 -0.0661841 131 131 131
0.177347 2.65394 6.98544 -0.138838 -0.98938 -0.043027 130 130 130
0.182543 2.65707 6.93262 -0.182149 -0.971296 0.152992 127 127 128
0.234789 2.65048 6.83187 -0.140599 -0.988278 0.0594926 137 136 139
0.240173 2.65437 6.79772 -0.262805 -0.964724 -0.0155529 132 133 134
0.247111 2.65801 6.76041 -0.188772 -0.981758 -0.0227298 141 142 144
0.292189 2.6598 6.70104 -0.146402 -0.989179 0.00952277 136 137 138
0.29098 2.65842 6.662 -0.146219 -0.989126 0.0158126 146 147 148
0.292709 2.65902 6.62377 -0.149162 -0.988778 -0.00827033 124 124 127
0.306707 2.66208 6.58642 -0.179069 -0.966415 -0.184327 129 128 131
0.32959 2.65899 6.52972 -0.20024 -0.947087 -0.250859 136 137 139
-0.899414 2.61767 10.0296 -0.0765067 -0.987132 -0.140417 137 135 138
-0.914632 2.60508 10.009 -0.0376559 -0.989248 -0.141317 137 135 138
-0.896259 2.59919 9.95016 -0.330104 -0.927117 -0.17744 151 151 153
-0.894482 2.60741 9.92638 -0.426984 -0.879494 -0.21018 140 139 143
-0.865246 2.60342 9.91637 -0.490632 -0.857506 -0.154803 139 138 141
-0.854547 2.61138 9.88746 -0.453427 -0.891016 0.0222359 127 125 129
-0.831712 2.62937 9.87539 -0.325548 -0.937891 0.119917 150 150 151
-0.834931 2.61332 9.86132 -0.258672 -0.95865 -0.118653 135 134 137
-0.826006 2.62904 9.84138 -0.605869 -0.795562 0.00214577 144 143 146
-0.816864 2.633 9.79557 0.00800978 -0.999731 0.0217656 145 145 148
-0.791276 2.63816 9.83414 0.0337161 -0.999356 -0.0122561 146 145 148
-0.816522 2.62991 9.78513 0.0163271 -0.973732 -0.227109 151 150 154
-0.812892 2.60821 9.70898 -0.516139 -0.796393 -0.315211 165 164 166
-0.776646 2.62452 9.70494 0.0319964 -0.999484 -0.00269909 154 153 154
-0.769681 2.61135 9.62486 -0.49205 -0.869179 -0.0491417 156 155 158
-0.743939 2.63408 9.61534 -0.0551413 -0.986498 -0.15421 148 148 150
-0.72861 2.63443 9.55257 0.148616 -0.849945 -0.505476 136 136 140
-0.515782 2.6371 8.98441 -0.0690362 -0.988689 -0.133143 127 129 132
-0.537248 2.62594 8.93625 -0.0636692 -0.987684 -0.142922 124 124 128
-0.483976 2.64423 8.89061 -0.162509 -0.985577 0.0472081 127 126 130
-0.483144 2.6376 8.80577 -0.314591 -0.892245 -0.32393 125 125 129
-0.479761 2.62101 8.78104 0.086906 -0.994496 -0.0585319 126 126 129
-0.476149 2.63314 8.75869 -0.167487 -0.95054 -0.261575 126 127 131
-0.455651 2.62627 8.73761 -0.136628 -0.973152 -0.185223 117 118 122
-0.479946 2.6151 8.69404 0.0263526 -0.993029 -0.114883 122 123 127
0.0149881 2.65293 7.42077 -0.221752 -0.967493 0.121589 122 123 126
0.0125379 2.64955 7.38327 -0.13017 -0.9904 0.0465034 139 139 143
0.0125082 2.65042 7.34965 -0.213987 -0.976491 -0.0259641 137 138 140
0.0183726 2.65356 7.31344 -0.138512 -0.990146 0.02061 133 133 135
0.0622449 2.65669 7.29565 -0.131818 -0.991035 0.0217494 136 136 139
0.060276 2.65457 7.2581 -0.130166 -0.990548 0.0432543 132 132 135
0.0638419 2.65528 7.22074 -0.139675 -0.98308 -0.118507 136 136 138
0.0822387 2.65616 7.14747 -0.130892 -0.980688 -0.14532 149 149 151
0.110989 2.65413 7.09072 -0.132576 -0.988614 -0.0711812 143 143 145
0.107898 2.65464 7.05368 -0.522104 -0.822579 -0.225324 132 133 134
0.138196 2.65194 7.03167 -0.135482 -0.989547 -0.0494086 135 134 135
0.135701 2.65189 7.00086 -0.346993 -0.936694 -0.0469154 117 116 117
0.141463 2.65516 6.95619 -0.14966 -0.967527 -0.203697 136 136 137
0.180418 2.65404 6.89458 -0.139078 -0.989334 0.0433113 137 137 138
0.191066 2.65557 6.85598 -0.135722 -0.981437 0.135504 136 137 138
0.188126 2.65497 6.80623 -0.143228 -0.988474 -0.0490444 138 140 140
0.194926 2.65188 6.78122 -0.144884 -0.988082 -0.0519845 146 147 148
0.251198 2.66022 6.72111 -0.140075 -0.989101 0.045365 134 133 135
0.250268 2.65886 6.68164 -0.250034 -0.968227 -0.00445904 131 131 133
0.248784 2.65743 6.64378 -0.162206 -0.986676 0.0126496 137 138 140
0.263098 2.66254 6.60337 -0.144242 -0.989416 0.0158197 130 130 132
0.294947 2.66006 6.55086 -0.222999 -0.964815 -0.139296 131 133 135
0.308945 2.65691 6.49379 -0.205334 -0.942625 -0.263243 141 143 144
0.332898 2.65786 6.43937 -0.186034 -0.96882 -0.163646 150 152 153
-0.929774 2.62086 10.0535 0.0621164 -0.996784 -0.0506383 142 141 142
-0.937513 2.61925 10.0055 0.0319592 -0.986805 -0.158731 137 136 139
-0.922723 2.60415 9.97205 -0.163594 -0.970512 -0.177039 154 154 156
-0.926849 2.60664 9.93442 -0.203598 -0.963772 -0.172311 132 131 135
-0.879922 2.62664 9.91123 0.122858 -0.95108 -0.283465 127 126 130
-0.872253 2.63118 9.87829 -0.0708113 -0.997381 -0.0147348 130 130 133
-0.850773 2.62952 9.85832 -0.173063 -0.968762 0.17762 145 145 148
-0.843381 2.63422 9.81005 0.091189 -0.992712 -0.0787937 139 139 141
-0.834936 2.62922 9.75315 0.0412776 -0.999098 -0.00995206 155 155 158
-0.818305 2.6234 9.73589 -0.953755 -0.229326 -0.194321 150 149 151
-0.842207 2.61749 9.68987 0.143685 -0.949924 -0.277488 133 134 137
-0.811382 2.627 9.69531 0.176669 -0.946101 -0.271443 141 141 143
-0.779075 2.63438 9.6763 0.0662637 -0.940282 -0.333884 137 137 139
-0.778547 2.63476 9.65197 0.0823871 -0.994941 -0.0574829 137 137 140
-0.786371 2.63 9.61542 -0.044494 -0.995869 -0.0791524 138 136 141
-0.779632 2.62906 9.58546 -0.0585707 -0.988115 -0.142124 132 132 135
-0.780637 2.61003 9.54814 -0.134719 -0.888388 -0.438883 137 137 140
-0.570568 2.62436 8.95423 -0.0527036 -0.985802 -0.159425 126 127 131
-0.580847 2.62204 8.91237 -0.123519 -0.961797 -0.244314 132 131 135
-0.529252 2.63714 8.90351 0.0268872 -0.967861 -0.250043 128 129 133
-0.504524 2.63942 8.82454 0.0502037 -0.998409 0.0256748 118 118 122
-0.511451 2.62654 8.76655 -0.0107384 -0.993756 -0.111053 123 123 128
-0.50308 2.61992 8.71368 -0.0387331 -0.991362 0.125304 123 124 128
-0.0918212 2.65382 7.56183 -0.106082 -0.988378 -0.108881 128 128 131
-0.0258188 2.65375 7.43583 -0.129341 -0.989316 0.0672598 130 131 134
-0.0202411 2.65321 7.40228 -0.177657 -0.981794 0.0672275 133 133 136
-0.0186724 2.65436 7.36639 -0.134615 -0.9836 0.120043 134 135 138
-0.0165858 2.656 7.33142 -0.116849 -0.98896 -0.091125 144 145 147
0.0196039 2.65356 7.27619 -0.126729 -0.991294 0.0357313 150 150 151
0.0248051 2.65568 7.23924 -0.132905 -0.98356 0.122255 134 133 135
0.0375868 2.6577 7.2003 -0.124734 -0.99219 -0.000201024 134 136 137
0.0800056 2.65802 7.11041 -0.128335 -0.990577 -0.0478358 135 134 138
0.0808949 2.65461 7.0304 -0.240899 -0.970125 0.0287123 130 131 133
0.0992676 2.65299 7.01631 -0.135199 -0.985237 -0.105024 133 133 135
0.0989787 2.65434 6.98567 -0.134831 -0.986362 -0.0943943 130 129 132
0.153078 2.65693 6.91014 -0.151174 -0.976347 -0.154573 128 129 130
0.160345 2.66085 6.87298 -0.159711 -0.986952 0.0204691 139 141 142
0.157829 2.6602 6.83977 -0.262904 -0.964415 -0.0280223 133 133 136
0.187828 2.65661 6.76803 -0.143323 -0.988549 -0.0472235 138 138 140
0.216027 2.66928 6.74299 -0.419537 -0.906382 0.0496134 139 139 140
0.206786 2.6629 6.7056 -0.138326 -0.990259 0.0158983 135 135 137
0.207799 2.65758 6.66345 -0.233653 -0.968956 -0.0808108 138 138 140
0.266708 2.6625 6.56401 -0.139752 -0.988452 0.0585876 130 131 133
0.26748 2.65952 6.528 -0.140384 -0.988434 0.057368 139 141 141
0.282709 2.6626 6.5138 -0.170904 -0.983401 -0.0609442 135 135 136
0.263715 2.66013 6.48001 -0.268877 -0.935995 -0.227199 137 138 139
0.304225 2.66256 6.459 -0.266379 -0.936028 -0.229988 136 138 139
-0.965316 2.60136 9.94316 -0.15682 -0.977388 -0.141848 139 138 141
-0.969903 2.60338 9.90523 -0.0538685 -0.986276 -0.156072 137 137 140
-0.913637 2.62482 9.91827 -0.0434009 -0.98472 -0.168648 135 135 138
-0.926243 2.62057 9.86797 0.0970876 -0.992451 -0.0749322 132 131 134
-0.885776 2.61814 9.80992 -0.648864 -0.717948 -0.252044 137 137 139
-0.855674 2.62578 9.70966 0.0249417 -0.99621 -0.0833304 133 134 137
-0.830579 2.62406 9.64245 0.0660683 -0.958054 -0.278868 144 144 146
-0.836923 2.61366 9.54745 0.26286 -0.868609 -0.420028 134 133 137
-0.819294 2.60996 9.52627 0.0467265 -0.951486 -0.304123 125 125 128
-0.774502 2.62873 9.52528 0.0559591 -0.975966 -0.210615 129 129 133
-0.60394 2.62525 8.93179 -0.0558106 -0.988272 -0.142139 123 123 127
-0.560429 2.64533 8.89064 0.0516844 -0.955639 -0.289969 133 133 136
-0.556792 2.63979 8.81673 -0.119491 -0.992795 -0.00892329 120 120 124
-0.535622 2.62797 8.78163 0.0736066 -0.997229 -0.0108159 124 125 128
-0.129646 2.6508 7.57918 -0.101524 -0.98699 -0.124674 126 126 130
-0.105458 2.6492 7.52357 -0.107585 -0.986224 -0.125653 125 126 129
-0.0608124 2.65708 7.45376 -0.111013 -0.990031 -0.0866872 130 131 135
-0.0607375 2.65461 7.4167 -0.126697 -0.988928 0.0772604 132 133 136
-0.0558995 2.65502 7.3803 -0.114907 -0.99236 -0.0449215 136 136 140
-0.0514086 2.65586 7.34982 -0.113633 -0.989424 -0.0901495 137 137 140
-0.0211579 2.65216 7.29446 -0.25801 -0.965621 0.0317229 136 135 138
-0.0153691 2.65498 7.25726 -0.121921 -0.992388 0.0173757 136 136 138
-0.0108109 2.65739 7.22056 -0.122778 -0.992405 -0.00754178 132 132 135
0.000468854 2.65827 7.18151 -0.228331 -0.973464 0.0152856 124 125 126
0.0375035 2.65764 7.1631 -0.124943 -0.992164 0.000130981 136 138 139
0.043635 2.65845 7.12918 -0.209783 -0.97332 0.0929529 137 137 139
0.0404522 2.65814 7.09181 -0.124955 -0.991059 -0.0467738 138 138 140
0.0684883 2.6588 7.05359 -0.174104 -0.964895 -0.196637 133 133 135
0.0718399 2.66026 7.00474 -0.129018 -0.980967 0.145117 136 137 140
0.102379 2.66079 6.94991 -0.179725 -0.900725 -0.395466 127 126 128
0.106868 2.66119 6.9239 -0.168032 -0.929373 -0.328682 132 133 134
0.123465 2.66138 6.89467 -0.142642 -0.977398 0.156036 135 135 137
0.127709 2.66581 6.85674 -0.13413 -0.989997 -0.0437621 136 137 139
0.117949 2.65825 6.81627 -0.134369 -0.990638 -0.0241142 139 141 142
0.157354 2.65917 6.80176 -0.134249 -0.990711 0.0216568 132 133 134
0.161362 2.65997 6.7634 -0.134406 -0.990684 0.0219266 147 148 148
0.163606 2.66094 6.72533 -0.140021 -0.99007 0.0124271 138 139 139
0.194911 2.66056 6.67503 -0.145549 -0.988056 -0.0506137 131 132 133
0.191015 2.65995 6.63705 -0.146414 -0.988038 -0.048418 151 153 153
0.210145 2.65918 6.58609 -0.293752 -0.953558 -0.0666029 137 138 139
0.228767 2.66236 6.54629 -0.200476 -0.975152 0.0942771 134 134 135
0.226863 2.66157 6.50847 -0.190733 -0.967918 -0.163574 129 130 132
0.256347 2.66395 6.45181 -0.236279 -0.942264 -0.237298 121 122 124
0.288278 2.66501 6.42558 -0.37916 -0.879577 -0.287372 139 141 142
0.274559 2.66695 6.39529 -0.187019 -0.965309 -0.182213 131 132 134
-0.976955 2.62034 9.98042 0.0435101 -0.988557 -0.144436 129 128 132
-0.99769 2.60704 9.93 -0.0441236 -0.999019 -0.00370084 142 142 144
-0.972096 2.60751 9.86504 -0.0286687 -0.98245 -0.18431 138 137 141
-0.906758 2.63466 9.80867 -0.0529881 -0.994908 0.0857289 131 131 135
-0.836225 2.62764 9.52033 0.0680773 -0.997333 -0.026296 132 131 135
-0.809997 2.62926 9.49732 0.160057 -0.961563 -0.223109 127 126 130
-0.617816 2.62293 8.89292 -0.104684 -0.992859 -0.0571991 132 132 135
-0.615089 2.62707 8.85804 -0.163185 -0.984649 0.0619375 141 141 144
-0.612802 2.6265 8.82279 -0.148385 -0.988325 0.0345647 122 121 125
-0.599032 2.60877 8.7603 -0.123385 -0.956875 0.262995 119 121 124
-0.16118 2.65202 7.59732 -0.11159 -0.993753 -0.00193726 126 127 129
-0.154899 2.64739 7.53683 -0.0976663 -0.979108 -0.178349 127 127 131
-0.151674 2.65151 7.50356 -0.161506 -0.985295 -0.0557694 136 136 140
-0.119563 2.65497 7.4521 -0.133696 -0.964197 -0.22902 127 128 131
-0.0987804 2.65576 7.43414 -0.233991 -0.968126 0.0893376 139 141 143
-0.0952473 2.65531 7.39771 -0.111334 -0.992425 -0.0519442 129 130 133
-0.0969572 2.65604 7.3613 -0.118108 -0.988585 -0.0935476 124 124 127
-0.0527403 2.65665 7.30993 -0.117108 -0.993094 -0.00712468 134 133 137
-0.0522551 2.6557 7.27533 -0.194436 -0.962647 0.18843 132 132 134
-0.0500921 2.65652 7.23857 -0.118098 -0.992901 0.0141597 130 131 134
-0.031993 2.66191 7.1977 -0.117302 -0.992938 -0.0177367 136 138 140
0.0110148 2.6612 7.14746 -0.20928 -0.976772 -0.0460225 126 126 129
0.00874169 2.6614 7.11054 -0.121286 -0.991536 -0.0463164 135 135 136
0.000376544 2.65754 7.07338 -0.123716 -0.987027 -0.102332 121 122 125
0.0193262 2.65555 7.03636 -0.134073 -0.99085 0.0155041 131 132 134
0.024214 2.65715 7.02287 -0.123862 -0.992057 0.0219354 134 135 137
0.032478 2.66027 6.98162 -0.362898 -0.914939 -0.176611 136 135 137
0.0715189 2.66363 6.96733 -0.252659 -0.958468 -0.132295 147 146 147
0.067413 2.66544 6.93468 -0.176124 -0.965784 -0.190374 141 142 144
0.0904679 2.66238 6.88824 -0.166031 -0.936459 -0.308995 133 133 135
0.0816318 2.65962 6.83528 -0.129041 -0.991633 -0.00351241 132 132 134
0.124083 2.66153 6.77809 -0.134017 -0.990785 -0.0196143 136 137 138
0.123935 2.66112 6.74473 -0.251109 -0.967916 0.0091182 126 126 127
0.15779 2.66154 6.68788 -0.150574 -0.98216 -0.112648 122 122 125
0.151785 2.66033 6.65261 -0.127211 -0.984765 0.118559 142 143 144
0.160845 2.6616 6.61371 -0.12767 -0.986548 0.102097 149 151 151
0.189173 2.66103 6.59889 -0.147733 -0.987311 -0.0582365 132 132 135
0.194832 2.66631 6.56552 -0.303953 -0.951477 -0.0480137 135 135 136
0.191496 2.66459 6.52788 -0.152943 -0.988176 -0.0108447 138 140 140
0.227735 2.66848 6.47074 -0.491057 -0.836633 -0.24271 137 139 140
0.246232 2.66676 6.4167 -0.140351 -0.989425 0.0365953 137 139 141
0.237944 2.66068 6.3687 -0.177021 -0.974081 -0.140821 127 129 130
-0.994658 2.61575 9.89472 0.0515222 -0.998376 -0.0242864 135 134 138
-0.997422 2.61898 9.85385 0.180887 -0.954289 -0.237933 128 127 130
-0.641282 2.63316 8.87891 -0.00540155 -0.995302 -0.0966667 126 125 128
-0.628176 2.64475 8.84842 0.00157855 -0.995096 -0.0988968 120 120 124
-0.641659 2.63212 8.80558 0.025877 -0.996153 0.0837283 127 128 132
-0.595527 2.63819 8.7948 -0.0606608 -0.97519 0.212896 116 117 121
-0.225707 2.64827 7.62832 -0.109064 -0.993963 0.0119303 128 128 131
-0.184637 2.65354 7.61178 -0.100717 -0.9925 -0.0692762 132 132 135
-0.210987 2.64583 7.57775 -0.20342 -0.921471 -0.330925 150 150 152
-0.179077 2.64788 7.55978 -0.093061 -0.968404 -0.231373 129 129 132
-0.187869 2.65018 7.52342 -0.0931924 -0.968196 -0.232187 116 116 120
-0.150183 2.65487 7.47023 -0.166899 -0.9836 -0.0683867 138 139 142
-0.132001 2.65405 7.41547 -0.102882 -0.971973 -0.211386 132 132 136
-0.124886 2.66088 7.3799 -0.286896 -0.947743 0.13955 138 140 142
-0.0973648 2.65913 7.32559 -0.112168 -0.984932 -0.13163 135 136 140
-0.0850052 2.6596 7.28968 -0.214655 -0.976439 0.0221142 135 136 139
-0.0905594 2.65669 7.254 -0.250447 -0.965644 0.0693353 129 129 132
-0.0685141 2.65609 7.21941 -0.189499 -0.967853 -0.165382 125 126 130
-0.0633383 2.66308 7.18343 -0.113813 -0.988979 -0.0947 126 126 128
-0.0277529 2.66426 7.1649 -0.187604 -0.976803 -0.103251 151 152 153
-0.0278245 2.66113 7.12902 -0.117877 -0.992993 -0.0083796 129 130 132
-0.028757 2.66081 7.09231 -0.118043 -0.992932 -0.0123399 129 130 132
-0.0075882 2.66195 7.03395 -0.311465 -0.949112 -0.0466475 132 133 135
0.0258206 2.66106 6.95229 -0.364469 -0.916916 -0.162566 143 144 145
0.051785 2.66206 6.89982 -0.133598 -0.984355 -0.114875 148 149 150
0.0449219 2.66501 6.87247 -0.157203 -0.947359 -0.278924 121 120 123
0.0749095 2.6642 6.85283 -0.16855 -0.934796 -0.312645 134 134 137
0.0599261 2.66124 6.8167 -0.147049 -0.97208 -0.182859 140 141 142
0.0930053 2.66256 6.79659 -0.157369 -0.96143 -0.225582 143 144 145
0.0865045 2.66232 6.76197 -0.199976 -0.97337 -0.112073 133 134 134
0.105686 2.66259 6.72834 -0.314816 -0.948171 0.0431664 118 118 120
0.111155 2.66086 6.69425 -0.223182 -0.962905 0.151672 125 126 127
0.113878 2.66005 6.67158 -0.19037 -0.97899 -0.0730622 134 136 136
0.155527 2.66621 6.58366 -0.549048 -0.811012 -0.202005 142 143 144
0.166422 2.66452 6.53547 -0.797501 -0.599805 -0.0650093 137 139 140
0.189508 2.66373 6.48961 -0.142606 -0.989721 -0.0107343 130 131 133
0.217259 2.67023 6.4431 -0.193243 -0.95239 -0.235818 130 133 135
0.210344 2.66925 6.39737 -0.1649 -0.9678 0.190186 132 134 135
-0.34677 2.65621 7.91673 -0.0834395 -0.993373 -0.0790488 131 131 135
-0.347998 2.63329 7.8958 -0.0765409 -0.98927 -0.124445 124 124 128
-0.348186 2.63812 7.8661 -0.0117076 -0.996299 -0.085149 131 132 135
-0.246563 2.63966 7.59335 -0.27972 -0.782432 0.556378 130 129 132
-0.182809 2.65727 7.48875 -0.099138 -0.990005 -0.100314 128 128 131
-0.192465 2.65424 7.45183 -0.0993026 -0.989829 -0.101874 130 130 134
-0.157546 2.65723 7.43437 -0.102008 -0.972851 -0.207739 131 132 134
-0.164362 2.66014 7.3984 -0.104279 -0.972209 -0.209609 128 129 132
-0.129312 2.66031 7.34368 -0.117109 -0.989974 0.0789742 141 142 145
-0.124571 2.6607 7.30775 -0.117888 -0.989426 0.0844858 137 138 141
-0.119779 2.66092 7.27182 -0.127606 -0.991507 -0.0251035 134 135 137
-0.100344 2.65645 7.23673 -0.137787 -0.98722 0.0800741 130 130 134
-0.0632343 2.6621 7.14729 -0.124327 -0.991818 0.0289714 131 132 134
-0.066339 2.66029 7.11056 -0.116961 -0.989859 0.0806186 135 137 139
-0.0587337 2.6625 7.07413 -0.115122 -0.992842 -0.0318059 124 124 127
-0.040413 2.65727 7.05508 -0.363509 -0.930295 -0.0491237 130 131 133
-0.00421624 2.66347 7.00045 -0.207096 -0.978081 0.0216701 135 136 138
-0.0092986 2.66032 6.96881 -0.265652 -0.964036 -0.00793663 125 125 128
-0.0173352 2.6601 6.93967 -0.396863 -0.898934 -0.18552 135 136 138
0.018347 2.66128 6.92309 -0.129788 -0.985097 -0.112867 138 138 140
0.0057579 2.66553 6.89895 -0.121929 -0.992203 -0.0258347 126 128 129
0.023475 2.66272 6.83753 -0.288847 -0.940183 -0.180619 126 127 130
0.0551842 2.66542 6.78025 -0.150184 -0.969583 -0.193273 133 133 136
0.0640007 2.66697 6.73046 -0.118673 -0.967342 0.223978 131 132 132
0.0782448 2.6687 6.69208 -0.117127 -0.97266 0.200536 120 120 121
0.0818468 2.66622 6.65431 -0.119773 -0.984561 0.127648 142 143 145
0.113202 2.66228 6.63594 -0.139193 -0.989012 -0.0498077 144 145 146
0.131091 2.66527 6.59499 -0.15051 -0.98256 -0.109191 141 143 143
0.121833 2.66351 6.55823 -0.15219 -0.982094 -0.111041 138 140 141
0.154054 2.66703 6.50697 -0.269845 -0.962447 0.0296588 150 152 153
0.157156 2.66801 6.47336 -0.135539 -0.990627 0.0169247 142 145 145
0.163161 2.66782 6.42871 -0.13672 -0.990507 0.0142364 127 128 132
0.170449 2.66743 6.41356 -0.14343 -0.989505 -0.0175512 133 135 137
0.18725 2.65846 6.35242 -0.150849 -0.987963 -0.034268 130 133 134
-1.12899 2.61292 10.0119 0.152796 -0.980453 -0.123955 134 134 137
-1.08568 2.62875 10.0064 0.277014 -0.90477 -0.323503 140 139 142
-0.981427 2.6349 9.73902 0.168144 -0.972171 -0.163126 126 127 131
-1.01161 2.61796 9.67844 0.0894797 -0.940567 -0.327608 129 130 134
-0.929038 2.62853 9.47073 -0.0507696 -0.990538 -0.127504 131 131 133
-0.360983 2.65039 7.88564 -0.313136 -0.936769 -0.156235 143 143 146
-0.360015 2.65554 7.85376 -0.131338 -0.98718 -0.090692 126 126 130
-0.327601 2.65616 7.83775 -0.0760144 -0.985408 -0.15229 133 132 135
-0.331756 2.65742 7.78211 -0.113568 -0.991007 0.0707681 123 123 126
-0.301003 2.65997 7.73338 -0.113047 -0.991381 0.0662123 130 129 133
-0.302497 2.65653 7.69743 -0.0868081 -0.992967 -0.0805076 146 147 149
-0.265513 2.64919 7.62177 -0.121984 -0.986937 0.105235 133 132 136
-0.273327 2.64028 7.57284 -0.287183 -0.759846 0.583233 133 133 136
-0.230665 2.64883 7.50472 -0.0901296 -0.969144 -0.229425 121 122 126
-0.216788 2.65988 7.47082 -0.0939719 -0.989604 -0.108878 125 125 129
-0.196233 2.65873 7.41635 -0.0953746 -0.975445 -0.19852 123 124 127
-0.162575 2.66405 7.36135 -0.117123 -0.990012 0.0784733 122 123 126
-0.159738 2.66315 7.32532 -0.134231 -0.988673 -0.067134 128 129 132
-0.169135 2.65891 7.29021 -0.103706 -0.989183 -0.103738 130 129 133
-0.14826 2.66228 7.27532 -0.104685 -0.981639 -0.159455 135 136 138
-0.154516 2.6612 7.25447 -0.187181 -0.977942 -0.0927001 129 129 132
-0.120058 2.66162 7.23648 -0.107862 -0.991403 -0.074069 129 129 132
-0.122392 2.66042 7.20747 -0.174284 -0.98116 -0.0833637 138 138 141
-0.0982566 2.6638 7.16511 -0.11476 -0.990947 0.0696679 132 133 136
-0.0949609 2.66501 7.12909 -0.11178 -0.990282 -0.0827417 138 140 141
-0.0943738 2.66489 7.09206 -0.178728 -0.982438 0.0535941 119 119 121
-0.0759384 2.66301 7.03896 -0.116689 -0.988397 -0.0972386 126 126 127
-0.0446934 2.66275 7.01916 -0.117975 -0.991141 -0.0609982 133 134 136
-0.0361621 2.66719 6.98471 -0.115495 -0.99067 0.0723515 138 140 142
-0.0416233 2.66607 6.95589 -0.124214 -0.984826 -0.121196 134 135 137
-0.0237286 2.66164 6.91148 -0.259886 -0.943511 -0.205538 132 133 135
0.00351216 2.66502 6.86219 -0.123364 -0.991994 -0.0270024 141 142 143
0.000384353 2.66392 6.82552 -0.122978 -0.991968 -0.0296097 133 135 137
0.0217763 2.66562 6.79963 -0.246569 -0.933005 -0.262119 132 133 135
0.0103423 2.66615 6.77892 -0.115461 -0.983808 0.137078 130 131 133
0.0491404 2.66543 6.7457 -0.139905 -0.985935 -0.0914256 132 133 134
0.0795939 2.66474 6.61373 -0.154118 -0.975899 -0.154497 127 128 130
0.0772528 2.66304 6.58042 -0.237482 -0.97138 0.00473328 134 135 137
0.122031 2.66792 6.52654 -0.410947 -0.860574 -0.300892 130 131 134
0.119483 2.66977 6.49104 -0.146028 -0.989193 -0.0131422 136 138 138
0.174535 2.66822 6.37879 -0.245539 -0.96798 0.0522104 137 138 140
0.173534 2.66573 6.34479 -0.139992 -0.990079 0.0120612 135 137 138
-1.23225 2.60363 10.1846 0.0540238 -0.964944 -0.256836 145 145 148
-1.21784 2.60373 10.1194 0.00940269 -0.977911 -0.20881 147 147 148
-1.14556 2.60884 9.9618 -0.0027166 -0.956128 -0.292935 144 143 145
-1.11498 2.61375 9.94449 0.0574393 -0.962772 -0.264141 138 137 140
-1.11326 2.62116 9.91813 0.18857 -0.968126 -0.164845 133 132 136
-1.09148 2.6197 9.88929 0.0930983 -0.944449 -0.315198 125 125 128
-1.11586 2.60545 9.82962 -0.0166133 -0.975828 -0.217907 130 131 133
-1.07567 2.61548 9.81835 -0.0101062 -0.982544 -0.185756 126 126 129
-1.09258 2.60804 9.76985 -0.106873 -0.966187 -0.23465 130 130 134
-1.05545 2.6175 9.76112 0.11803 -0.990087 -0.0761388 136 135 138
-1.06915 2.61368 9.71633 -0.017331 -0.974455 -0.223912 129 129 132
-1.04087 2.61459 9.69603 -0.0270615 -0.959951 -0.278859 134 135 139
-1.01236 2.62173 9.64355 -0.0283187 -0.986831 -0.159256 129 130 133
-0.983642 2.62976 9.55182 0.0566053 -0.998317 0.0125812 129 129 133
-0.970949 2.61526 9.51734 -0.0728358 -0.992087 -0.102271 132 131 134
-0.970918 2.61905 9.48086 -0.0538964 -0.99067 -0.125175 133 133 136
-0.594924 2.6309 8.39256 0.116454 -0.989588 -0.0845773 120 121 125
-0.571785 2.63468 8.37842 0.119061 -0.988872 -0.0892024 136 138 140
-0.38201 2.65707 7.90118 -0.076047 -0.992625 -0.0944034 142 142 144
-0.385232 2.6591 7.87061 -0.11192 -0.984612 -0.134215 142 142 144
-0.363668 2.65718 7.82137 -0.0850961 -0.994842 -0.0552055 137 137 140
-0.363389 2.6592 7.79787 -0.0977759 -0.995111 0.0139528 140 139 143
-0.344231 2.65318 7.74724 -0.121866 -0.99229 -0.0225839 124 124 127
-0.344922 2.64909 7.71248 -0.0649773 -0.943705 -0.324344 124 124 128
-0.313775 2.65132 7.65992 -0.111394 -0.98503 -0.13156 134 135 141
-0.298729 2.65312 7.63868 -0.110433 -0.991813 0.064129 157 161 167
-0.297924 2.6499 7.60324 -0.105971 -0.994174 0.0197001 184 190 195
-0.308389 2.64442 7.56672 -0.774148 -0.501467 0.386297 164 171 179
-0.304135 2.62669 7.54187 -0.373671 -0.59373 0.712639 142 143 151
-0.251145 2.65812 7.48831 -0.260381 -0.949775 -0.173578 121 122 126
