ply
format ascii 1.0
element vertex 744
property float x
property float y
property float z
property float nx
property float ny
property float nz
property uchar diffuse_red
property uchar diffuse_green
property uchar diffuse_blue
end_header
12.42 1.81019 10.3736 0.968014 -0.228174 -0.104338 25 25 29
12.529 2.34282 13.1935 0.244446 -0.939262 -0.240902 141 132 117
12.5153 2.3478 13.2137 0.0503588 -0.889687 -0.453784 141 132 117
12.6198 2.35782 13.2824 0.307675 -0.896284 -0.319392 166 153 126
12.6885 2.35733 13.2348 0.274525 -0.913836 -0.299231 185 169 129
12.7786 2.3517 13.2592 0.22696 -0.937175 -0.264939 182 165 125
12.6475 2.34147 13.4478 0.351574 -0.906599 -0.233396 130 126 120
12.7679 2.3705 13.4353 0.417067 -0.648483 -0.636808 171 156 125
12.8533 2.3569 13.464 0.558715 -0.582575 -0.590291 162 150 124
12.9018 2.33133 13.5139 0.325651 -0.905405 -0.272385 134 128 119
15.354 2.36008 14.9009 0.464308 -0.486615 -0.740016 143 137 126
15.4229 2.36013 14.942 0.469313 -0.394034 -0.790242 141 137 127
15.4883 2.38094 14.9778 0.517259 -0.155029 -0.841671 131 129 126
15.6804 2.34747 14.8347 0.330642 -0.89184 -0.308703 128 127 125
15.7785 2.35588 14.89 0.390502 -0.834795 -0.388106 125 124 123
16.067 2.37987 15.2892 0.602086 -0.560499 -0.568624 142 141 139
16.1661 2.37755 15.3679 0.062055 -0.299991 -0.951921 139 138 137
16.7656 2.35236 15.3551 -0.379528 -0.0450503 -0.924083 139 139 138
17.3847 1.8874 13.4298 0.292594 -0.183681 -0.93843 149 142 134
17.45 1.8847 13.4512 0.464995 0.197859 -0.862921 226 132 82
17.5343 1.89335 13.5662 0.964581 -0.0342243 -0.261556 177 147 132
17.5243 1.88197 13.5444 0.860705 -0.132679 -0.49151 199 142 105
17.5944 1.92336 13.5591 0.465103 0.685538 -0.560105 142 139 136
17.5755 1.94377 13.6279 0.958791 -0.141699 -0.246254 148 146 144
17.2275 2.33632 15.4772 -0.0960535 -0.921161 -0.377143 139 140 137
17.2562 2.31757 15.467 0.174984 -0.910959 -0.373542 137 137 135
17.3885 2.30702 15.4111 0.210127 -0.93061 -0.299685 130 132 130
17.4966 2.29985 15.7055 0.520163 0.651155 -0.552655 121 122 121
17.4336 2.34353 15.7689 0.361488 -0.656787 -0.661783 122 123 121
17.5282 2.3305 15.5805 0.742609 0.487174 -0.459557 129 129 128
17.6761 2.34806 15.9301 0.211743 -0.616238 -0.758562 121 123 122
17.756 2.34126 15.9755 0.558919 -0.767408 -0.314157 113 115 114
17.8016 2.32055 15.8897 0.457087 -0.825875 -0.330154 114 115 114
17.8715 2.25982 15.5523 0.458743 -0.824537 -0.331201 120 122 120
17.8016 2.32055 15.8897 0.457087 -0.825875 -0.330154 119 121 120
18.1648 2.26402 15.5987 -0.485137 -0.389454 -0.782923 116 119 117
12.2921 1.78692 9.95439 0.797789 0.0285843 -0.602259 81 84 88
12.3452 1.81545 9.97769 0.803232 0.119859 -0.583483 62 63 66
12.366 1.79214 10.0422 0.92194 0.0590144 -0.382812 69 70 73
12.3725 1.82698 10.1132 0.930205 0.170864 -0.324845 36 36 38
12.3985 1.85555 10.1623 0.971495 -0.0126056 -0.236726 8 8 9
12.4037 1.82034 10.2379 0.96304 0.112448 -0.244766 26 26 29
12.4287 1.85154 10.2935 0.958369 -0.255729 -0.127008 7 7 8
12.4789 1.88172 10.3317 0.883157 -0.421908 0.205006 7 7 8
12.4648 1.84339 10.4174 0.861627 -0.506658 0.0299294 9 9 12
12.531 2.37889 13.0467 0.150731 -0.880347 -0.449743 194 175 128
12.7082 2.36972 13.0481 0.267446 -0.937747 -0.221591 184 169 126
12.7476 2.39616 13.0923 0.0576191 -0.922438 -0.381822 143 133 114
12.7893 2.40177 13.1857 0.551581 -0.654519 -0.517072 150 141 122
12.7919 2.45158 13.3524 0.717758 -0.695352 -0.0361731 134 130 124
12.8517 2.44125 13.4128 0.434513 -0.880794 -0.188152 139 131 120
12.9805 2.37833 13.3058 0.0182546 -0.909624 -0.415031 180 162 121
12.8976 2.39718 13.472 0.54771 -0.739949 -0.390498 200 181 130
13.0062 2.42554 13.3311 0.298238 -0.911489 -0.28327 134 128 122
12.9518 2.40814 13.5421 0.253181 -0.799586 -0.544575 193 176 127
13.117 2.42737 13.3852 0.228913 -0.917891 -0.324153 135 131 127
15.5145 2.39198 14.7645 0.591465 -0.267201 -0.760771 130 129 128
15.893 2.34277 14.4737 0.479103 -0.838796 -0.258616 131 131 130
15.8686 2.35079 14.5416 0.38859 -0.875721 -0.286549 130 129 128
16.0202 2.34002 14.4831 0.416632 -0.822541 -0.387097 134 134 133
16.3457 2.41222 15.1993 0.597354 -0.5194 -0.611058 139 139 138
16.4973 2.35205 14.9909 0.430858 -0.872839 -0.229157 135 135 135
17.3617 1.97538 13.479 -0.688356 -0.0205734 -0.725081 145 133 129
17.4373 1.96367 13.4541 0.449742 -0.0597714 -0.891156 235 136 77
17.4908 1.93044 13.4993 0.724682 0.110289 -0.680201 254 178 64
17.5399 1.96893 13.5338 0.77482 0.0295333 -0.631492 214 145 97
17.4049 2.3312 15.2696 0.164917 -0.914321 -0.369892 134 135 133
17.5978 2.27823 15.003 -0.313328 -0.842989 -0.437258 125 126 125
17.4386 2.36408 15.5035 0.640319 0.580696 -0.502776 134 135 133
17.6485 2.2986 15.1293 0.683342 0.541948 -0.48922 129 130 129
17.6938 2.24054 15.1679 0.418257 0.696207 -0.583401 122 124 122
17.7676 2.27382 15.2774 0.74062 -0.624958 -0.246799 124 126 124
17.7168 2.29487 15.2979 0.696377 -0.546802 -0.464829 123 125 124
18.2801 2.26145 15.3832 -0.0603634 -0.717557 -0.693879 120 122 121
18.319 2.26309 15.4548 0.261765 -0.891642 -0.369395 120 123 121
12.3069 1.84754 9.93621 0.663538 0.531278 -0.526745 42 42 44
12.3156 1.89474 9.99752 0.876439 0.22956 -0.423269 6 6 7
12.3523 1.85837 10.0465 0.934256 0.144989 -0.325798 15 14 15
12.3599 1.90013 10.1147 0.972926 0.14397 -0.180798 6 6 6
12.4041 1.89718 10.2385 0.990478 -0.0038799 -0.137616 5 6 6
12.4619 1.92575 10.2568 0.84872 -0.490278 0.198246 5 5 6
12.6407 2.41863 12.9919 0.208479 -0.929863 -0.303135 133 129 122
12.6131 2.43907 13.0555 0.332931 -0.894412 -0.298638 133 131 126
12.6756 2.43687 13.1245 0.284377 -0.915213 -0.285509 130 126 121
12.8618 2.40505 12.9357 0.281651 -0.936664 -0.208167 125 124 121
13.1762 2.36593 12.7769 0.435297 -0.895001 -0.0974145 127 126 124
12.9234 2.4315 13.0846 0.208255 -0.93652 -0.282064 121 119 117
12.863 2.47313 13.1929 0.24074 -0.94189 -0.23428 129 128 125
12.9768 2.45047 13.1496 0.263254 -0.917457 -0.298279 129 128 126
13.0301 2.47425 13.2253 0.77338 -0.56169 -0.293918 133 131 129
13.0752 2.42192 13.2611 0.0771426 -0.934703 -0.346956 124 120 117
13.1319 2.43101 13.374 0.218904 -0.942823 -0.251327 128 125 121
13.2462 2.46739 13.2897 -0.0681374 -0.735836 -0.673723 125 124 121
13.329 2.40911 13.3322 0.260996 -0.943413 -0.20458 135 131 127
13.3449 2.45351 13.3621 -0.064271 -0.691652 -0.719365 135 131 128
15.9333 2.36085 14.4268 0.513857 -0.823937 -0.238913 134 134 132
16.0254 2.356 14.4569 0.548047 -0.781685 -0.297679 136 136 134
16.4114 2.42479 14.9138 0.378664 -0.212072 -0.90091 134 135 134
16.5261 2.39036 14.8191 0.325188 -0.377376 -0.867087 137 138 137
17.3987 2.02951 13.472 -0.689843 -0.0201801 -0.723677 200 116 83
17.4884 2.01228 13.4969 0.799429 -0.158476 -0.579481 255 184 61
17.5527 2.04201 13.5452 0.623668 -0.139994 -0.769051 214 145 101
17.7558 2.27279 14.7726 0.028212 -0.585312 -0.810317 129 130 129
17.8374 2.24563 14.7787 0.212267 -0.688801 -0.693178 123 124 123
17.866 2.24319 14.738 0.0786851 -0.739152 -0.668927 126 127 126
17.8976 2.23883 14.8812 0.452942 -0.640076 -0.620602 128 130 129
18.0417 2.15876 14.4526 0.0723938 -0.486555 -0.870645 128 130 128
18.1452 2.28214 15.0208 -0.030295 -0.908671 -0.416412 133 135 133
18.2868 2.24925 15.0912 -0.0885756 -0.85183 -0.516275 127 129 128
18.3276 2.31135 15.2411 -0.272305 -0.480038 -0.833914 131 133 131
18.3468 2.31106 15.2508 -0.285598 -0.50798 -0.812644 131 133 131
18.3982 2.28581 15.3902 0.201637 -0.904099 -0.376759 126 130 128
18.4589 2.28635 15.3159 -0.260074 -0.511507 -0.818976 128 131 129
12.2485 1.93264 9.97611 0.573305 0.718168 -0.394406 6 6 7
12.2805 1.96913 10.0157 0.13104 0.560459 -0.81775 4 5 6
12.3505 1.92817 10.0363 0.965005 0.0692877 -0.252913 5 5 5
12.4113 1.92856 10.1352 0.868449 -0.450564 0.206854 4 4 5
12.6376 2.46229 12.866 0.227014 -0.940009 -0.254652 130 129 127
12.6835 2.46991 12.8828 0.0579595 -0.926017 -0.373006 130 129 127
12.7602 2.46207 12.9293 0.379456 -0.711398 -0.591546 136 136 132
13.0359 2.41053 12.6637 0.221915 -0.942824 -0.248669 133 132 129
13.1515 2.40699 12.6797 0.260275 -0.940832 -0.217006 134 133 131
13.0484 2.4254 12.7702 0.281104 -0.882473 -0.377125 134 133 130
13.2259 2.43893 12.8194 0.344291 -0.858349 -0.380396 134 132 130
13.2886 2.42651 12.7535 0.158028 -0.946497 -0.281374 126 125 123
13.4166 2.40372 12.7182 0.30144 -0.933655 -0.193449 136 135 132
13.1289 2.47922 13.2284 0.678472 -0.734601 -0.00599808 133 132 130
13.5227 2.39621 12.7493 0.408895 -0.826421 -0.387084 141 139 136
13.424 2.40717 13.037 0.317291 -0.917875 -0.238394 126 124 122
13.5612 2.3957 12.7786 0.346672 -0.718905 -0.60249 134 133 129
13.6956 2.35493 12.8632 0.233889 -0.948119 -0.215328 137 135 133
13.8374 2.32422 12.6443 0.414511 -0.800694 -0.432516 137 136 133
13.9187 2.32037 12.7587 0.331424 -0.929149 -0.163832 136 133 130
13.9608 2.31082 12.621 0.455354 -0.770025 -0.446893 136 133 131
16.0464 2.38191 14.276 0.509749 -0.840457 -0.183816 127 128 126
17.4962 2.09945 13.4881 0.832353 -0.473689 -0.287761 254 174 62
17.5103 2.08772 13.5138 0.86621 -0.187705 -0.463085 254 180 53
17.5615 2.11584 13.5668 0.574471 -0.121002 -0.809531 203 138 100
17.5951 2.07731 13.6315 0.95676 -0.148421 -0.250165 130 124 126
17.6695 2.31708 14.8667 0.271742 0.362685 -0.891412 130 131 129
17.8888 2.25757 14.4894 0.342766 -0.472174 -0.812135 137 138 136
17.7781 2.27798 14.7419 0.0598444 -0.455192 -0.88838 125 125 125
17.9102 2.26112 14.4736 0.437432 -0.630539 -0.64115 138 139 138
17.9784 2.22134 14.4515 0.0656652 -0.360695 -0.930369 136 138 135
18.0053 2.21799 14.4289 0.0436662 -0.406727 -0.912506 137 138 136
18.0684 2.20401 14.3935 0.521964 -0.332623 -0.78544 137 138 136
18.2348 2.29289 14.9074 -0.129018 -0.426626 -0.895178 130 131 130
18.4258 2.33272 15.1833 -0.293204 -0.452974 -0.84193 129 132 130
12.7876 2.46863 12.6424 0.404221 -0.905609 -0.128369 135 135 133
12.8247 2.49402 12.7651 0.410152 -0.811525 -0.416176 135 135 133
12.9532 2.50411 12.7146 0.342486 -0.767438 -0.54198 134 133 130
13.1717 2.44192 12.553 0.36031 -0.851154 -0.381723 140 137 135
13.3163 2.42577 12.5226 0.225007 -0.945696 -0.234585 138 133 131
13.3599 2.42705 12.5141 0.334357 -0.927368 -0.167908 137 132 130
13.4667 2.42573 12.5426 0.282594 -0.875179 -0.392686 136 135 132
13.4898 2.4006 12.6143 0.87578 -0.447552 -0.180851 136 134 132
13.6068 2.40823 12.5208 0.477473 -0.873571 -0.0943059 139 137 134
13.562 2.41169 12.7422 0.576717 -0.816316 -0.032042 146 144 141
13.5777 2.43219 12.6775 0.757113 -0.652835 0.0242216 142 139 136
13.8227 2.32787 12.5248 0.588177 -0.751998 -0.297568 139 137 135
13.822 2.38683 12.6114 0.401853 -0.904879 -0.140387 146 144 142
13.9476 2.33702 12.5779 0.259709 -0.94149 -0.21482 149 147 144
14.042 2.36051 12.6825 0.320646 -0.932727 -0.164944 142 140 136
16.0753 2.4524 14.2102 0.447517 -0.857291 -0.25452 135 136 134
17.34 2.17566 13.4584 0.439077 0.116935 -0.890807 118 106 117
17.4053 2.17469 13.4847 0.427373 0.219879 -0.87693 247 154 84
18.0516 2.26792 14.3662 0.0335505 -0.431665 -0.90141 143 144 142
18.2589 2.28726 14.5362 -0.0636136 -0.812875 -0.578954 133 135 133
18.3505 2.27191 14.4466 -0.044439 -0.362865 -0.930781 136 138 135
18.2997 2.30068 14.8184 -0.178958 -0.590028 -0.7873 130 132 130
18.4157 2.28929 14.7019 -0.201159 -0.602627 -0.772254 128 130 128
18.5116 2.27496 14.5705 -0.214152 -0.559484 -0.800697 131 134 132
13.2895 2.4202 12.1402 0.093759 -0.941538 -0.323599 134 133 131
13.4216 2.42872 12.2001 0.0316005 -0.928643 -0.369625 138 135 133
13.4824 2.40031 12.1925 0.226493 -0.946593 -0.229483 136 129 128
13.6067 2.41594 12.2263 0.0610892 -0.908341 -0.413746 138 134 131
13.6067 2.41594 12.2263 0.0610892 -0.908341 -0.413746 138 134 131
13.7862 2.38212 12.1388 0.301807 -0.914605 -0.26909 141 139 136
13.7456 2.40295 12.2061 0.20287 -0.948535 -0.243156 139 138 134
13.5686 2.43793 12.5757 0.298108 -0.923522 -0.241328 139 137 134
13.8615 2.37722 12.3347 0.259262 -0.941908 -0.213522 137 132 130
13.9185 2.36937 12.3353 0.800004 -0.599104 0.0326708 144 141 138
13.9507 2.37954 12.3127 0.622912 -0.781682 -0.0308758 147 144 141
13.9869 2.35504 12.3816 0.752163 -0.658877 0.0114598 145 142 139
14.0446 2.38937 12.546 0.297085 -0.939167 -0.172356 145 143 140
14.127 2.38442 12.4451 0.184154 -0.939783 -0.287915 137 136 132
14.1963 2.40495 12.582 -0.166051 -0.862373 -0.478267 135 134 131
17.4379 2.2298 13.4885 0.517237 0.245337 -0.819924 250 171 92
17.4941 2.17932 13.478 0.739394 -0.625623 -0.248781 255 185 80
17.5716 2.18565 13.5131 0.671796 -0.684219 -0.283785 238 152 80
17.5671 2.20513 13.5686 0.136835 -0.250162 -0.958486 218 138 89
17.6535 2.17618 13.5427 0.269311 -0.71559 -0.644518 129 126 125
17.6493 2.19101 13.5439 0.432979 -0.803982 -0.407606 131 127 126
17.6155 2.30356 14.0521 0.233941 -0.926678 -0.294176 141 142 141
17.6135 2.30532 14.0598 0.237041 -0.928869 -0.284628 141 142 141
17.6305 2.33017 14.1963 0.384415 -0.822425 -0.419336 142 143 142
17.7309 2.31929 14.1922 0.380581 -0.889486 -0.252927 145 146 145
17.7528 2.28763 14.0552 0.327377 -0.907893 -0.261828 143 144 142
17.7564 2.28458 14.0401 0.326596 -0.908127 -0.261993 142 143 142
17.722 2.35871 14.4567 0.926792 0.15226 -0.343328 145 146 145
17.8862 2.26564 13.967 0.329787 -0.906494 -0.263646 150 151 150
18.0398 2.30324 14.2253 0.0355002 -0.157718 -0.986846 145 146 144
18.3202 2.3235 14.3855 -0.00111064 -0.342847 -0.939391 146 148 145
18.3525 2.31449 14.486 -0.062261 -0.399412 -0.914655 139 140 137
18.4333 2.26218 14.3934 -0.0860132 -0.410903 -0.907612 134 135 133
18.4815 2.26969 14.3236 -0.152721 -0.59475 -0.789271 135 137 135
4.4815 2.59765 7.69408 0.343311 -0.910632 -0.229969 148 150 147
4.4815 2.59765 7.69408 0.343311 -0.910632 -0.229969 149 151 148
4.94177 2.48407 7.61586 0.968145 -0.015494 0.24991 143 142 141
4.5524 2.61738 7.73185 0.377495 -0.912661 -0.156674 144 146 143
5.11266 2.50402 7.62469 0.909318 -0.1527 0.387071 158 157 154
5.14407 2.49299 7.6156 0.829468 -0.15015 0.537994 157 156 154
5.5252 2.5572 8.11274 0.623088 -0.676402 0.392736 210 210 205
13.531 2.43843 11.9596 0.0559808 -0.516213 -0.854629 139 138 135
13.5186 2.47094 12.0892 0.378644 -0.845095 -0.377417 139 137 134
13.6884 2.38124 11.9596 0.203253 -0.936263 -0.286532 144 136 134
13.6792 2.45763 12.1932 0.3883 -0.90001 -0.198001 140 137 135
13.8932 2.42485 12.076 0.183773 -0.950522 -0.250471 131 129 126
13.8874 2.39375 12.1989 0.250677 -0.944013 -0.214478 147 139 136
13.9469 2.4138 12.2237 0.85144 -0.498847 -0.16187 142 139 136
14.0653 2.38832 12.2841 0.812843 -0.570616 -0.116973 147 145 142
14.1677 2.40095 12.2727 0.418306 -0.899316 -0.12748 138 137 135
14.1639 2.40667 12.272 0.228669 -0.922053 -0.312296 139 137 135
14.2668 2.40778 12.326 0.195557 -0.949262 -0.24629 132 131 130
17.5406 2.25742 13.5317 0.324874 -0.0841505 -0.942006 217 149 92
17.6051 2.25919 13.5488 0.357372 -0.327639 -0.874608 121 98 93
17.6662 2.25021 13.5283 0.50347 -0.813246 -0.291803 106 104 106
17.6482 2.27121 13.534 0.691062 -0.674623 -0.259456 91 86 90
17.7287 2.29601 13.7081 0.450799 -0.839462 -0.303454 143 144 143
17.7304 2.27741 13.5491 0.45822 -0.858257 -0.231147 145 146 145
17.6183 2.35345 14.0567 0.520438 -0.823696 -0.225097 142 143 142
17.6183 2.35345 14.0567 0.520438 -0.823696 -0.225097 142 143 142
17.7823 2.32305 13.8867 0.329464 -0.835814 -0.439169 150 150 149
17.7645 2.31928 13.8956 0.386731 -0.850507 -0.356479 147 147 146
17.7259 2.34721 13.9932 0.257221 -0.927986 -0.269591 147 147 146
17.8763 2.31564 13.8997 0.314141 -0.888681 -0.334007 150 150 149
17.9767 2.3193 13.9444 -0.358276 -0.816703 -0.452366 144 146 144
18.0449 2.32564 14.0323 -0.367943 -0.204911 -0.906989 149 150 148
18.4003 2.31637 14.3464 -0.120554 -0.670384 -0.732156 143 146 142
18.4416 2.34526 14.2643 -0.11201 -0.71838 -0.686574 145 148 145
18.441 2.31872 14.3028 -0.122938 -0.702461 -0.701024 143 146 142
18.4854 2.32958 14.2492 -0.133405 -0.630231 -0.764861 141 144 141
18.5772 2.26827 14.1523 -0.148403 -0.55428 -0.818994 136 139 136
5.21422 2.52134 7.50574 0.631535 -0.624373 0.459697 152 152 150
5.2327 2.54019 7.49269 0.590202 -0.701843 0.398846 150 150 148
5.2327 2.54019 7.49269 0.590202 -0.701843 0.398846 150 150 148
5.22975 2.54585 7.58027 0.803068 -0.0622887 0.592623 165 164 160
5.23927 2.58033 7.69681 0.492423 -0.841496 0.22227 187 186 182
5.24601 2.57905 7.69385 0.46941 -0.864455 0.179919 186 186 182
5.61392 2.57458 7.98393 0.801348 -0.277004 0.530198 213 211 207
5.89863 2.58728 8.07793 0.643778 -0.636135 0.425301 197 196 193
13.3965 2.47297 11.8509 -0.0385916 -0.890397 -0.453546 130 129 127
13.5113 2.49199 11.8944 0.12286 -0.50308 -0.855462 136 135 133
13.5283 2.4741 11.9217 0.0675467 -0.451818 -0.889549 134 133 131
13.7484 2.43727 11.7522 -0.119137 -0.866796 -0.484222 128 127 125
13.7728 2.44359 11.789 0.200786 -0.940872 -0.272845 128 127 125
13.8033 2.42903 11.8827 0.399952 -0.908743 -0.119266 137 136 133
14.2912 2.34396 11.8512 0.81549 -0.562234 -0.137364 136 135 133
14.0818 2.44171 12.2 0.0274699 -0.937595 -0.346643 128 127 126
14.225 2.4282 12.1157 -0.121214 -0.869012 -0.479713 127 127 125
14.3876 2.36796 11.8459 0.606608 -0.671615 -0.425395 134 133 132
14.3134 2.42616 12.1233 0.153084 -0.951706 -0.266123 120 120 120
14.3916 2.44079 12.2459 -0.0120317 -0.93062 -0.365788 121 121 121
14.3276 2.44688 12.4024 0.292911 -0.941245 -0.168111 133 132 132
17.501 2.32243 13.5528 -0.288567 -0.227776 -0.929971 113 95 85
17.6415 2.32095 13.5321 0.843751 -0.478545 -0.243061 123 121 121
17.7431 2.32351 13.5403 0.463681 -0.834633 -0.2973 150 150 149
17.7919 2.31071 13.521 0.252309 -0.930456 -0.265692 150 150 149
17.8777 2.36159 13.8036 0.318319 -0.884819 -0.340247 145 145 144
17.8334 2.35571 13.8317 0.691492 -0.495204 -0.525938 145 144 144
17.8859 2.36312 13.7885 0.196865 -0.914395 -0.353733 144 144 143
18.0882 2.3322 13.797 0.150097 -0.918088 -0.366858 151 152 150
18.3292 2.3802 14.293 -0.221863 -0.373024 -0.900905 145 147 146
18.3998 2.38038 14.291 -0.0573605 -0.478843 -0.876025 147 150 147
18.4035 2.37946 14.2871 -0.0351291 -0.422519 -0.905673 147 150 147
18.5594 2.2953 14.019 -0.0537708 -0.692657 -0.71926 141 144 141
18.5978 2.30802 13.9837 -0.0520004 -0.720255 -0.691758 141 144 141
18.6124 2.31564 14.1183 -0.13312 -0.505829 -0.852301 138 141 139
5.22561 2.56353 7.2124 0.434794 -0.654018 -0.619043 143 143 142
5.11443 2.59345 7.36791 0.111272 -0.170556 -0.979045 138 139 137
5.11137 2.57235 7.44378 0.902765 -0.347152 -0.253969 150 151 149
5.93704 2.488 7.31525 0.68936 -0.544395 0.47793 161 160 159
6.02879 2.60627 7.89238 0.0642901 -0.608891 -0.790645 202 200 192
5.93169 2.6151 7.97782 0.512234 -0.824788 0.239461 202 199 193
13.4619 2.5138 11.8399 0.136257 -0.680376 -0.720085 132 132 130
13.813 2.43828 11.5452 0.315258 -0.916354 -0.246794 138 138 136
13.9587 2.4244 11.5135 0.300332 -0.918517 -0.257154 135 134 132
13.822 2.45714 11.641 -0.280078 -0.679 -0.678612 132 132 130
13.8222 2.44825 11.8255 0.521816 -0.821972 -0.228188 138 137 135
14.1052 2.37502 11.5991 -0.00458339 -0.88769 -0.460419 131 130 129
14.2446 2.35462 11.5436 0.449929 -0.753034 -0.480109 129 129 128
14.3126 2.39173 11.7596 0.756038 -0.654044 0.0251508 133 132 132
14.4649 2.38876 11.669 0.573485 -0.757414 -0.312152 128 128 127
14.5809 2.36507 11.62 0.32685 -0.930557 -0.16502 124 123 124
14.5925 2.35933 11.6122 0.38225 -0.913871 -0.136841 124 123 124
14.5897 2.34243 11.7386 0.636628 -0.749741 -0.180533 127 126 126
14.6636 2.35248 11.7823 0.693872 -0.719982 -0.0129742 124 123 124
14.7122 2.3941 11.8876 0.307939 -0.938804 -0.154342 136 136 137
17.5363 2.36136 13.4344 0.356604 -0.881351 -0.309927 152 149 146
17.6503 2.38595 13.4782 0.331674 -0.50593 -0.796258 149 148 147
17.7425 2.36294 13.4337 0.60422 -0.695234 -0.389317 147 147 146
17.7158 2.34447 13.5542 0.765962 -0.572665 -0.292159 148 149 147
17.7442 2.38774 13.5169 0.695788 -0.67064 -0.257139 148 148 147
17.9002 2.33692 13.4319 0.152919 -0.920574 -0.359388 139 140 140
17.9942 2.33396 13.5082 0.176496 -0.907221 -0.381836 143 143 141
18.4308 2.44376 14.2813 -0.252563 -0.373044 -0.892777 150 152 150
18.6323 2.30754 13.7826 0.03971 -0.426402 -0.903662 144 147 144
5.44929 2.53695 6.91268 0.367734 -0.929918 -0.0050167 129 130 129
5.45093 2.57076 7.03005 0.476023 -0.850546 0.22355 140 140 140
5.49794 2.56561 7.02672 0.91986 -0.392206 -0.00574866 143 143 142
5.76199 2.53978 7.02392 0.652911 -0.686387 -0.320282 153 152 151
5.53278 2.53877 7.19234 0.884919 -0.240746 -0.398697 147 147 146
5.5378 2.53941 7.19108 0.842245 -0.236149 -0.484621 147 147 146
5.95384 2.53494 7.23538 0.937911 -0.261864 0.227486 163 162 160
6.02254 2.63182 7.63065 0.46988 -0.862669 0.187123 217 213 203
6.02254 2.63182 7.63065 0.46988 -0.862669 0.187123 217 213 203
6.02254 2.63182 7.63065 0.46988 -0.862669 0.187123 217 213 203
6.01146 2.62485 7.68431 0.271448 -0.891259 -0.363281 212 209 199
6.1317 2.6127 7.72831 0.367741 -0.914299 -0.169777 218 215 204
5.9953 2.65734 7.829 0.993174 -0.0674755 -0.0951485 220 217 206
6.61755 2.56832 7.63166 0.250944 -0.934972 -0.25071 216 212 200
6.8814 2.52713 7.65639 0.368993 -0.929402 -0.00750802 222 218 206
7.17948 2.57693 8.00542 0.357332 -0.933969 0.00388144 215 208 197
13.8768 2.41049 11.1718 0.282323 -0.665272 -0.691163 133 133 132
13.9206 2.41451 11.2681 0.312875 -0.923291 -0.222808 130 130 129
13.8901 2.48701 11.5178 0.328599 -0.900707 -0.284165 126 126 126
14.0847 2.44998 11.4101 0.214328 -0.952447 -0.216585 123 123 123
14.1602 2.40005 11.4318 0.531827 -0.837691 -0.124234 133 132 132
14.231 2.39841 11.4843 0.423992 -0.821784 -0.380661 132 132 131
14.3453 2.42 11.6075 0.394869 -0.907329 -0.144335 129 128 129
14.479 2.43289 11.6104 0.440366 -0.891981 -0.102216 123 124 124
14.4923 2.42967 11.6478 0.341468 -0.909545 -0.236911 124 124 125
14.6565 2.40764 11.7391 0.343862 -0.924538 -0.164281 120 120 122
14.7724 2.42512 11.7574 0.242899 -0.94763 -0.207358 126 127 127
17.6023 2.39564 13.4038 0.322963 -0.533956 -0.7814 147 146 145
18.5957 2.36318 13.759 0.680698 -0.688252 -0.250917 137 139 138
5.68343 2.57742 6.85532 0.603027 -0.786623 -0.132602 173 162 161
5.7732 2.54471 7.01747 0.700692 -0.686131 -0.195589 155 154 153
5.8755 2.5384 6.96075 0.923903 -0.374752 0.0772237 160 158 157
5.98968 2.53754 7.03152 0.928542 -0.319884 0.188374 164 162 160
6.01329 2.58518 7.10632 0.624735 -0.771946 -0.117498 192 189 182
6.07809 2.60769 7.19331 0.826414 -0.556725 0.0842445 218 215 205
6.07023 2.5647 7.26888 0.943954 -0.255948 0.208426 186 184 178
6.65772 2.53674 7.26257 0.438607 -0.887949 0.138456 222 218 207
6.27695 2.60938 7.47488 0.348188 -0.90107 -0.25853 219 216 204
6.61185 2.57103 7.43634 0.572263 -0.576253 -0.583479 223 219 207
6.89383 2.52072 7.40009 0.687462 0.207071 -0.696073 220 217 205
6.85016 2.53968 7.60201 0.376588 -0.926329 0.00976953 222 217 206
7.28339 2.52523 7.52732 0.449243 -0.893407 0.00207403 224 220 209
7.36464 2.50816 7.62159 0.486827 -0.869697 0.0814008 224 220 209
7.13241 2.57624 7.87641 0.415518 -0.906467 0.075255 215 209 198
7.41743 2.55862 7.77411 0.360369 -0.910601 -0.202334 216 210 198
13.777 2.44248 11.1871 0.224998 -0.951939 -0.207818 127 126 126
13.9417 2.43319 11.0249 0.226359 -0.952663 -0.202964 124 124 124
13.9451 2.43153 11.0198 0.226062 -0.952436 -0.204357 124 124 124
13.9232 2.45064 11.1817 0.29765 -0.864441 -0.40515 125 125 125
13.9824 2.47049 11.2363 -0.283265 -0.748525 -0.599559 123 122 123
14.058 2.43784 11.0719 0.225509 -0.951968 -0.207129 123 123 123
14.1287 2.43429 11.1331 -0.0396116 -0.919449 -0.391208 121 121 122
14.1636 2.4998 11.3971 0.251957 -0.949126 -0.188883 122 123 123
14.2352 2.43819 11.4072 0.45595 -0.766136 -0.452929 128 128 129
14.2984 2.44513 11.4587 0.463929 -0.74484 -0.479566 126 126 126
14.3593 2.45074 11.5106 0.630866 -0.321585 -0.706109 132 131 132
14.507 2.47779 11.4971 0.418894 -0.901977 -0.104718 124 124 125
14.6325 2.4469 11.5793 0.503271 -0.849354 -0.159111 124 124 125
14.6769 2.4158 11.5817 0.376379 -0.916478 -0.135669 120 120 121
14.786 2.41663 11.5008 0.567748 -0.813651 -0.12504 123 123 125
14.847 2.41727 11.472 0.266392 -0.94503 -0.189614 120 120 121
14.7349 2.46695 11.7189 0.438506 -0.875042 -0.204973 124 125 126
17.7053 2.39429 13.2314 0.479966 -0.739279 -0.472335 136 136 136
17.771 2.40465 13.301 0.458902 -0.423941 -0.780822 141 141 141
5.78229 2.56844 6.54132 0.453104 -0.866763 0.208372 143 143 142
5.80794 2.55096 6.51197 0.564214 -0.82188 0.0785814 143 143 141
5.69219 2.58313 6.71714 0.389457 -0.919413 0.0548069 171 172 170
5.81732 2.57806 6.73932 0.205433 -0.763936 -0.611718 182 176 174
5.86398 2.61997 6.76047 0.464794 -0.884078 -0.0487123 194 190 183
5.86398 2.61997 6.76047 0.464794 -0.884078 -0.0487123 189 183 177
5.9752 2.59038 6.84963 0.317574 -0.912522 -0.25778 173 168 164
5.9445 2.56005 6.86678 0.606726 -0.789831 -0.089731 172 165 163
6.05316 2.57394 6.93092 0.710169 -0.690558 -0.137078 180 176 171
6.0565 2.63023 6.98467 0.475365 -0.87162 0.119614 217 215 206
6.06735 2.65998 7.11931 0.362625 -0.931931 0.0027011 212 209 198
6.14256 2.64081 7.31755 0.850084 -0.00980273 -0.526556 219 216 204
7.16957 2.51858 7.19736 0.655968 -0.594723 0.46477 222 219 208
7.47554 2.49845 7.20031 0.55418 -0.765911 0.325982 225 222 211
7.29122 2.50517 7.29076 0.405741 -0.91091 0.0749516 221 217 206
7.26099 2.5297 7.40303 0.364667 -0.919654 -0.145786 218 214 202
7.32964 2.50845 7.42191 0.409008 -0.90943 0.0751625 220 216 205
7.32964 2.50845 7.42191 0.409008 -0.90943 0.0751625 220 216 205
7.32964 2.50845 7.42191 0.409008 -0.90943 0.0751625 220 216 205
7.40569 2.57797 7.51355 0.286405 -0.945593 -0.154354 210 206 195
7.52085 2.54877 7.5281 0.326662 -0.942333 -0.0728024 210 205 194
7.38651 2.57825 7.59544 0.26039 -0.943609 -0.204447 211 206 195
7.81743 2.48661 7.44434 0.381135 -0.905787 -0.185166 212 207 196
7.55475 2.56685 7.71779 0.340451 -0.938967 -0.0493307 213 207 195
14.0177 2.48254 11.0115 0.222979 -0.953753 -0.201581 128 127 127
14.2985 2.48676 11.3881 0.795992 -0.468395 -0.38341 126 126 126
14.3891 2.47956 11.3951 0.324081 -0.876354 -0.356335 122 122 123
14.4657 2.49804 11.5065 0.492047 -0.745518 -0.449547 130 130 130
14.4458 2.49611 11.4854 0.406972 -0.714855 -0.568644 129 129 130
14.6129 2.46918 11.3816 -0.443728 -0.506223 -0.739489 123 123 124
14.5754 2.48676 11.554 0.38817 -0.831544 -0.397313 125 125 126
14.7966 2.43026 11.273 0.511093 -0.85711 -0.0643979 125 125 126
14.8817 2.42349 11.2919 0.256238 -0.947689 -0.190337 130 130 131
14.8466 2.43956 11.4188 0.427453 -0.883508 -0.191565 129 129 130
14.9926 2.43427 11.3696 0.445927 -0.885525 -0.130364 128 128 128
6.01602 2.60209 6.47271 0.509674 -0.856631 0.0800974 192 190 184
6.00654 2.59877 6.57131 0.422429 -0.906378 -0.00568035 187 186 180
6.27094 2.56704 6.75285 0.437054 -0.884277 0.16443 206 205 197
6.33243 2.56634 6.74294 0.371069 -0.928303 0.0236799 213 212 203
6.33243 2.56634 6.74294 0.371069 -0.928303 0.0236799 213 212 203
7.59397 2.51365 7.07355 0.616576 -0.664619 0.422037 223 220 210
7.56457 2.52691 7.27767 0.396948 -0.912339 0.100349 217 213 203
7.64057 2.52948 7.38482 0.355982 -0.93449 0.00214851 210 206 196
7.86211 2.49789 7.41573 0.357165 -0.933064 -0.0427228 206 200 188
8.13762 2.52164 7.39259 0.434254 -0.886953 0.157284 213 205 193
8.06491 2.51658 7.4433 0.410052 -0.90847 0.0808666 212 205 192
8.12763 2.55811 7.74933 0.641434 -0.658982 0.392817 226 223 212
14.3739 2.49505 11.203 0.835474 -0.445063 -0.32234 128 129 129
14.4948 2.46859 11.1368 0.231927 -0.952631 -0.196731 124 124 124
14.5827 2.47048 11.1728 0.302448 -0.939828 -0.158895 131 131 131
6.00517 2.59994 6.42812 0.413448 -0.910272 -0.0215773 191 189 182
6.16217 2.64298 6.48333 0.36845 -0.928335 -0.0493817 209 208 198
6.24197 2.65549 6.59335 0.350641 -0.936492 -0.0057364 191 191 181
6.24197 2.65549 6.59335 0.350641 -0.936492 -0.0057364 191 191 181
6.82287 2.53887 6.51586 0.365848 -0.930351 0.0245461 186 186 179
6.64815 2.57914 6.74108 0.269088 -0.940343 -0.2082 193 192 184
7.68198 2.525 6.95875 0.430744 -0.684708 -0.587907 208 205 194
7.68267 2.56919 7.19537 0.318374 -0.944936 -0.0757193 166 159 149
7.79622 2.5624 7.28304 0.433945 -0.89102 0.133323 191 184 173
8.03107 2.52619 7.30711 0.441829 -0.885916 0.14121 201 192 180
8.28023 2.556 7.39843 0.468542 -0.869614 0.155692 227 224 212
8.26118 2.55661 7.46436 0.859784 -0.425327 0.282611 229 226 215
8.2109 2.56035 7.58565 0.601908 -0.714974 0.355695 225 221 209
8.24409 2.58009 7.62505 0.754223 -0.468511 0.460048 202 197 182
8.37501 2.60862 7.62776 0.606626 -0.709529 0.358571 152 144 130
7.0823 2.55557 6.38358 0.49935 -0.820577 -0.278034 155 155 151
7.83628 2.57513 6.88945 0.420152 -0.897937 0.131076 154 147 140
7.92679 2.58299 6.98717 0.38378 -0.917977 0.100155 178 170 159
8.2612 2.54343 7.02603 0.39344 -0.912416 0.112707 204 197 183
8.31759 2.52365 7.13924 0.409209 -0.907458 0.0952218 213 206 193
8.31344 2.54438 7.29716 0.56706 -0.755503 0.328113 227 223 211
8.34288 2.58158 7.3569 0.967415 -0.228768 0.108503 217 213 199
8.47019 2.60245 7.37237 0.431522 -0.892726 0.129729 180 173 158
8.47171 2.6029 7.3707 0.428057 -0.895162 0.124307 179 173 157
8.32002 2.60062 7.5196 0.673802 -0.599944 0.431344 188 182 168
8.34751 2.60409 7.50904 0.583692 -0.749962 0.311225 181 175 160
8.34751 2.60409 7.50904 0.583692 -0.749962 0.311225 181 175 160
8.46426 2.61225 7.6056 0.647247 -0.645855 0.4049 132 125 114
8.43762 2.60036 7.59466 0.494134 -0.843368 0.211098 147 140 126
8.69465 2.62086 7.56408 0.698943 -0.562349 0.441862 108 105 99
8.70369 2.60035 7.64293 0.590593 -0.738302 0.325743 102 99 95
8.88982 2.58782 7.70134 0.724798 -0.513956 0.458822 90 87 86
9.08597 2.58553 7.69725 0.638722 -0.693132 0.33407 90 88 87
6.24087 2.6936 6.3579 0.285415 -0.905868 -0.312954 153 152 146
6.98144 2.61108 6.32377 0.438537 -0.720413 -0.5373 127 127 126
6.77531 2.62654 6.37201 0.258715 -0.870938 -0.417772 141 142 139
7.84661 2.61622 6.7772 0.208968 -0.929508 -0.303886 151 145 140
7.8964 2.58003 6.85936 0.388228 -0.914666 0.112538 157 151 143
8.33112 2.55425 6.91304 0.373959 -0.926241 0.0472401 211 203 190
8.49642 2.5572 7.04445 0.403699 -0.905366 0.131684 232 229 220
8.47726 2.57566 7.10394 0.673918 -0.560073 0.481823 224 221 209
8.46138 2.58623 7.23824 0.467915 -0.862701 0.191838 205 199 185
8.81539 2.60538 7.30687 0.498655 -0.835103 0.232266 136 130 116
8.52808 2.64037 7.52264 0.698024 -0.608689 0.377174 127 122 112
8.81762 2.61716 7.51869 0.67814 -0.634508 0.370843 111 108 102
8.93541 2.64224 7.53814 0.858802 -0.422735 0.289403 99 98 96
8.91602 2.62091 7.62173 0.759905 -0.426257 0.490764 97 94 92
9.10071 2.62108 7.62527 0.645136 -0.76099 0.0685032 94 91 90
7.93953 2.61094 6.59923 0.396654 -0.91167 0.107346 165 161 155
7.92275 2.6157 6.62253 0.405409 -0.90578 0.123315 168 163 157
7.90714 2.6347 6.75105 0.294163 -0.950283 -0.102125 167 160 152
7.92382 2.63773 6.733 0.20426 -0.928315 -0.31066 171 164 155
7.95688 2.62433 6.7337 0.272078 -0.950421 -0.150575 168 161 153
8.00617 2.61285 6.71114 0.305163 -0.94905 -0.078606 169 162 153
7.92953 2.63055 6.74561 0.40012 -0.90992 0.109312 168 161 152
7.95597 2.6246 6.73408 0.282989 -0.950777 -0.126254 168 161 153
8.20528 2.58973 6.74927 0.45585 -0.866555 0.203183 202 194 180
8.13756 2.59934 6.77444 0.402106 -0.909088 0.10895 200 191 177
8.20497 2.58217 6.83421 0.382721 -0.921279 0.0690607 203 194 181
8.57134 2.55953 6.7781 0.523629 -0.796598 0.302068 229 226 215
8.58841 2.56175 6.9217 0.509645 -0.81647 0.271364 230 229 219
8.7453 2.59392 6.97689 0.474512 -0.844652 0.247793 191 185 170
8.68322 2.59628 7.06906 0.456353 -0.863157 0.216108 177 169 151
8.76611 2.60454 7.16616 0.486515 -0.844475 0.223973 154 144 124
9.00248 2.5977 7.14182 0.680521 -0.604495 0.414099 125 118 106
8.9882 2.57849 7.24799 0.571608 -0.751908 0.328479 133 127 114
9.13715 2.56689 7.29737 0.475958 -0.85777 0.194151 112 108 103
9.12376 2.57025 7.30474 0.690756 -0.565176 0.451035 112 108 103
9.16736 2.5879 7.41058 0.413387 -0.900801 0.132921 96 94 94
9.24446 2.58187 7.40833 0.336603 -0.94118 -0.0296418 84 82 82
9.47234 2.56465 7.34918 0.342227 -0.927915 -0.147834 86 82 81
9.41856 2.57854 7.37989 0.279883 -0.952963 -0.116306 85 82 81
9.41856 2.57854 7.37989 0.279883 -0.952963 -0.116306 85 82 81
9.71681 2.542 7.44183 0.348893 -0.9365 0.0352288 107 103 98
7.30352 2.56772 5.91616 0.514762 -0.774206 0.368274 125 126 125
8.2993 2.60917 6.55185 0.472928 -0.873659 0.114276 202 192 178
8.78544 2.48043 6.46484 0.845673 -0.100568 0.524141 195 187 174
8.66393 2.56299 6.65754 0.521475 -0.796164 0.306899 227 223 212
8.64041 2.56098 6.63534 0.527252 -0.788269 0.317232 225 220 209
8.62879 2.56379 6.64089 0.530245 -0.784447 0.321689 225 221 209
8.62788 2.56391 6.64128 0.530088 -0.784662 0.321422 225 221 209
8.6661 2.57005 6.80621 0.509234 -0.814712 0.277354 231 228 219
8.80192 2.6077 6.8727 0.510015 -0.814095 0.27773 206 201 188
9.09614 2.58239 6.96412 0.506773 -0.812121 0.289207 140 132 118
9.0616 2.59421 7.10995 0.72526 -0.626451 0.285582 120 114 103
9.17848 2.57808 7.08601 0.593768 -0.75085 0.289248 118 112 102
9.38454 2.57388 7.03427 0.450668 -0.875759 0.173042 120 115 105
9.32584 2.60938 7.17736 0.130047 -0.906521 -0.40163 102 97 91
9.37533 2.5444 7.10715 0.657654 -0.621454 0.425778 104 101 96
9.38434 2.56612 7.22172 0.351937 -0.908261 -0.22628 98 94 92
9.39426 2.6097 7.32836 0.183529 -0.878788 -0.44051 106 100 93
9.52797 2.59881 7.31385 0.278146 -0.951944 -0.128206 122 115 103
9.59782 2.57735 7.38209 0.354688 -0.934906 0.0121263 119 113 101
9.63596 2.56735 7.35997 0.400519 -0.912694 0.0810793 119 113 101
9.63596 2.56735 7.35997 0.400519 -0.912694 0.0810793 119 113 101
9.93028 2.55647 7.30533 0.200581 -0.949733 -0.240364 139 129 112
7.46054 2.60107 5.80014 0.532925 -0.794982 0.289817 88 88 89
7.42556 2.60433 5.83633 0.459038 -0.879712 0.124062 88 88 89
7.60232 2.57872 5.89649 0.763387 -0.554838 0.33075 74 74 78
7.63761 2.60644 6.0454 0.569712 -0.705594 0.421385 80 81 82
7.87564 2.60709 6.04448 0.421252 -0.88855 0.181731 107 106 106
7.70648 2.6783 6.25061 0.352755 -0.935179 -0.0316905 131 130 127
8.81705 2.62737 6.63843 0.515542 -0.800978 0.304384 225 223 212
8.64168 2.64085 6.74735 0.45643 -0.864837 0.209117 223 221 209
8.80723 2.63333 6.79441 0.494862 -0.828046 0.263535 209 205 192
9.03479 2.61519 6.72466 0.429498 -0.888068 0.16391 201 196 181
9.13668 2.60746 6.80363 0.409156 -0.903746 0.125833 170 161 143
9.18062 2.61321 6.91117 0.407422 -0.905579 0.118044 148 139 123
9.13607 2.61307 7.00987 0.585903 -0.755912 0.292085 127 120 108
9.25646 2.60663 6.98887 0.475579 -0.874441 0.0958022 125 119 108
9.42241 2.60118 6.95517 0.564154 -0.754702 0.334896 137 129 114
9.45785 2.56815 7.00915 0.422862 -0.896503 0.132173 128 121 109
9.52637 2.55833 7.01522 0.379384 -0.923073 0.0632835 129 122 111
9.50166 2.59436 7.14223 0.170263 -0.935246 -0.310363 131 121 108
9.67676 2.59309 7.11382 0.234577 -0.951492 -0.199087 176 168 150
9.80193 2.59368 7.15407 0.31427 -0.948509 -0.0395699 176 167 149
9.78842 2.58994 7.26639 0.464267 -0.883507 -0.0622177 158 147 127
10.1005 2.56503 7.18524 0.0626391 -0.852762 -0.51853 169 159 138
7.68992 2.65353 5.7951 0.277026 -0.897179 -0.343985 87 87 89
8.03561 2.61265 5.9203 0.557034 -0.708531 0.433241 117 117 117
8.08638 2.60907 5.90752 0.590576 -0.647295 0.481902 121 121 120
7.94985 2.61585 6.0375 0.528396 -0.759298 0.379821 122 122 120
8.69798 2.58633 6.31812 0.845955 -0.530468 0.0544342 217 210 196
8.83997 2.59188 6.45362 0.826427 -0.214901 0.52042 228 226 216
8.88137 2.63881 6.52791 0.357741 -0.929121 0.0935657 230 228 219
8.80605 2.6666 6.69934 0.390371 -0.909485 0.142997 216 212 198
8.96399 2.65126 6.68505 0.415475 -0.897559 0.147543 218 215 203
8.99403 2.64895 6.66311 0.353863 -0.931613 0.082934 216 212 199
9.31015 2.62618 6.6969 0.338398 -0.940886 0.0148252 191 183 166
9.37854 2.632 6.76183 0.41763 -0.721827 -0.551861 183 174 155
9.58231 2.59475 6.7437 0.295365 -0.927985 -0.227166 173 163 144
9.62171 2.58725 6.90442 0.29798 -0.951654 -0.0745811 166 156 138
9.71837 2.57464 6.85826 0.428103 -0.891277 0.149508 191 183 165
9.74784 2.56894 6.96152 0.448827 -0.876725 0.172938 197 190 175
10.021 2.59403 7.1289 0.0992266 -0.897409 -0.429897 205 201 187
10.1062 2.58122 7.14803 0.301367 -0.930809 -0.206813 198 192 176
7.80918 2.62697 5.70304 0.464485 -0.834453 0.296551 94 95 96
8.12309 2.636 5.84643 0.585015 -0.713099 0.386326 113 113 112
8.37603 2.57418 5.73355 0.621119 -0.577864 0.529419 119 119 118
8.01465 2.65168 5.86334 0.616624 -0.649209 0.445311 111 110 110
8.22135 2.59711 5.87385 0.587406 -0.686339 0.428827 124 124 122
8.25989 2.61303 5.83214 0.564329 -0.692974 0.448687 121 120 118
8.43867 2.60221 5.85969 0.643129 -0.600977 0.474565 133 133 130
7.96635 2.72552 6.14231 0.538248 -0.730889 0.419631 165 163 157
7.99096 2.71899 6.13208 0.539762 -0.728295 0.422188 164 161 156
8.83119 2.63486 6.38584 0.855695 0.203154 0.475935 232 230 220
9.2118 2.61273 6.35308 0.239306 -0.952803 -0.186814 229 227 218
9.02023 2.67401 6.57697 0.353247 -0.934271 0.0485183 223 221 210
9.20428 2.63241 6.61779 0.371742 -0.9252 0.0762407 217 214 201
9.58428 2.59203 6.72663 0.166982 -0.8738 -0.456716 174 164 145
9.78569 2.59124 6.76399 0.429342 -0.902975 0.0173752 214 208 193
9.87425 2.59591 6.87403 0.640153 -0.732595 0.231319 234 231 221
9.86829 2.61317 6.83084 0.671561 -0.587647 0.451306 232 229 220
10.0164 2.61455 6.89813 0.749588 -0.432292 0.501239 231 228 219
8.20032 2.62286 5.59089 0.506579 -0.825541 0.248714 104 104 105
8.17399 2.65372 5.76057 0.636419 -0.625697 0.451081 120 119 118
8.57927 2.6173 5.75384 0.655774 -0.501884 0.563979 129 129 126
8.30099 2.66434 5.93534 0.588926 -0.652254 0.477212 141 139 135
8.66056 2.67019 6.01832 0.359248 -0.929791 0.0801824 192 182 170
8.73696 2.65261 6.11564 0.559642 -0.705527 0.434779 211 203 189
9.01171 2.67372 6.26054 0.779323 -0.22302 0.585591 232 229 219
9.6299 2.60669 6.52311 0.315529 -0.948553 -0.0262467 216 213 200
9.58496 2.63072 6.59549 0.198992 -0.948911 -0.244887 214 211 197
9.72634 2.60779 6.60167 0.517035 -0.348013 -0.782024 219 214 200
9.74465 2.62233 6.66458 0.173405 -0.939814 -0.294416 218 214 202
9.70252 2.64243 6.64594 0.645825 -0.667282 0.371004 229 226 215
9.81938 2.61907 6.65952 0.333578 -0.933892 -0.128733 224 221 209
9.95949 2.64071 6.71068 0.729564 -0.507774 0.458152 233 231 221
9.89546 2.62362 6.80269 0.684959 -0.666066 0.295275 232 230 220
10.0232 2.64606 6.83564 0.733505 -0.468843 0.492094 230 228 219
8.56156 2.55124 5.39622 0.620066 0.702837 -0.348624 105 105 107
8.71455 2.60138 5.55864 0.904408 -0.295673 0.307611 130 130 128
8.62443 2.62109 5.74446 0.670684 -0.524808 0.524176 133 132 129
8.77353 2.62662 5.84789 0.605463 -0.610367 0.510751 147 143 137
8.76417 2.7072 5.95326 0.355766 -0.934132 0.0287786 180 170 158
8.76551 2.71071 6.07979 0.367553 -0.924492 0.101089 207 198 184
9.89378 2.66484 6.62863 0.763477 -0.40555 0.502625 232 230 220
9.91264 2.65694 6.63808 0.758781 -0.377703 0.530652 230 228 218
10.0809 2.6775 6.75192 0.819266 -0.216554 0.530949 232 230 221
8.77422 2.56368 5.36586 0.763317 -0.511082 0.39515 132 131 130
9.13383 2.51928 5.3208 0.818658 -0.350729 0.45474 129 129 127
8.74246 2.62739 5.6373 0.676036 -0.483538 0.556027 122 121 119
9.28488 2.53899 5.56596 0.66428 -0.499015 0.556521 139 136 134
9.32855 2.5656 5.6214 0.646758 -0.56103 0.516671 163 155 148
9.35031 2.57413 5.64082 0.746474 -0.260102 0.612473 174 164 154
8.84632 2.75469 6.02477 0.570564 -0.69212 0.442071 206 197 184
10.0066 2.68348 6.51756 0.78849 -0.315335 0.52806 230 228 218
8.88217 2.63922 5.41627 0.422468 -0.874043 0.239935 126 126 125
8.87145 2.63291 5.36789 0.516226 -0.780356 0.352924 136 136 134
9.1139 2.60228 5.4375 0.532432 -0.745353 0.401205 131 130 130
9.06046 2.6021 5.4455 0.765289 -0.609233 0.207768 137 136 135
9.06095 2.60197 5.44531 0.765415 -0.609036 0.207881 137 136 135
9.06058 2.60207 5.44545 0.768725 -0.604359 0.209314 137 136 135
9.35283 2.54484 5.46841 0.811069 -0.388411 0.437384 142 139 137
9.40099 2.58874 5.51917 0.503331 -0.782108 0.367375 172 163 155
8.81559 2.79314 5.97101 0.903722 -0.168643 0.393505 207 198 184
9.26669 2.58371 5.30867 0.780274 -0.600199 0.17588 137 136 135
9.31138 2.60739 5.33028 0.469906 -0.866431 0.168777 148 144 141
9.43902 2.58985 5.38752 0.601932 -0.772646 0.201735 162 155 149
9.38839 2.56517 5.39403 0.653483 -0.714491 0.249924 146 143 140
9.38797 2.56528 5.39419 0.653009 -0.715425 0.248488 146 143 140
9.38839 2.56517 5.39403 0.653483 -0.714491 0.249924 146 143 140
9.38844 2.56516 5.394 0.617022 -0.755954 0.21867 146 143 140
9.38748 2.56538 5.39409 0.650737 -0.716924 0.250123 146 143 140
9.38839 2.56517 5.39403 0.653483 -0.714491 0.249924 146 143 140
9.45704 2.6001 5.45461 0.476064 -0.828416 0.295111 177 168 157
9.31675 2.66736 5.66024 0.398051 0.508484 -0.763544 199 187 172
9.30947 2.60654 5.23579 0.526092 -0.732409 0.432208 132 131 130
9.48699 2.60394 5.33026 0.768865 -0.637379 -0.0509469 167 160 152
9.58275 2.61635 5.36737 0.56206 -0.82387 0.0729812 194 183 169
9.53937 2.6136 5.43979 0.507226 -0.824969 0.249296 197 186 172
9.48239 2.66062 5.53442 0.81016 -0.324236 0.488378 197 185 170
9.34676 2.62467 5.1639 0.391514 -0.897924 0.201118 133 133 132
9.43251 2.62925 5.25281 0.393094 -0.897609 0.199439 153 147 141
9.65821 2.66053 5.34966 0.322807 -0.94476 0.0567762 171 162 150
9.54733 2.64055 5.3746 0.468706 -0.864769 0.180249 196 184 170
9.46175 2.64734 5.08788 0.382125 -0.903838 0.192504 133 133 131
9.64846 2.6357 5.13821 0.267864 -0.961035 -0.0682677 134 133 130
9.59167 2.66027 5.26883 0.41126 -0.908195 0.0777628 156 150 144
9.7581 2.67235 5.17971 0.118062 -0.842859 -0.525024 135 134 132
9.79123 2.68022 5.27315 0.209056 -0.764315 -0.610016 139 138 134
12.2716 2.58672 6.05917 0.29228 -0.956135 0.0194444 185 181 176
12.3865 2.5851 6.02682 0.434994 -0.875401 0.210841 185 184 181
12.4122 2.56719 6.11808 0.793791 -0.363903 0.487309 173 170 167
12.6895 2.6115 6.31974 0.270554 -0.962644 -0.0107891 169 167 164
12.6888 2.61174 6.32018 0.261783 -0.964857 -0.0228179 169 167 164
12.4569 2.59237 5.9407 0.47881 -0.86801 0.13153 190 189 187
12.4277 2.60222 6.06844 0.705187 -0.542517 0.456492 181 180 177
12.5251 2.62036 6.09443 0.26791 -0.963421 -0.00658496 167 166 164
12.582 2.60839 6.17377 0.29421 -0.954565 -0.0473883 166 165 163
12.6202 2.61602 6.21703 0.282351 -0.959266 0.0093289 159 157 156
12.8073 2.59906 6.19808 0.617536 -0.777133 0.121301 156 154 153
12.5488 2.59117 5.95091 0.791541 -0.610992 -0.0123341 178 177 176
12.6264 2.61632 5.98882 0.382002 -0.924146 -0.00539798 152 151 152
12.6117 2.62115 6.08425 0.284198 -0.958719 0.00950272 157 155 155
12.6383 2.6204 6.09442 0.598682 -0.799952 -0.0406964 161 159 158
12.8628 2.59306 6.0476 0.37473 -0.91859 0.125579 156 153 152
12.8707 2.6063 6.1132 0.432978 -0.878554 0.201676 139 137 135
12.8914 2.60745 6.22478 0.221384 -0.972671 -0.0699979 216 216 215
12.6521 2.60749 5.88693 0.481776 -0.865207 0.138954 156 154 154
12.5632 2.61779 5.89944 0.553935 -0.755192 0.350488 162 160 161
12.6826 2.62201 5.9048 0.819508 -0.370175 0.437466 154 152 152
12.7311 2.6182 5.99353 0.760036 -0.625426 0.1766 153 150 148
12.8483 2.6114 5.98951 0.740989 -0.662883 0.107337 159 155 152
12.9315 2.61931 6.09595 0.259142 -0.965802 -0.00845543 142 139 137
12.9391 2.62024 6.15041 0.440751 -0.895134 0.0668886 159 154 149
12.7678 2.61787 5.80783 0.565484 -0.785314 0.252014 162 159 156
12.7522 2.63732 5.90258 0.754415 -0.532105 0.384347 156 153 152
12.8286 2.65028 5.96074 0.167966 -0.976242 -0.136887 144 141 141
13.0277 2.58027 5.94327 0.318258 -0.947946 -0.010443 144 141 141
13.0157 2.58571 5.94622 0.295298 -0.953365 -0.0624088 140 137 136
12.9798 2.65522 6.06825 0.191196 -0.976421 -0.100232 95 92 91
12.8056 2.63113 5.74006 0.109285 -0.961236 -0.253144 161 157 151
12.8696 2.63081 5.79008 0.424025 -0.904179 0.0516084 132 128 125
13.1205 2.5967 5.88611 0.274337 -0.96132 0.0245678 122 119 122
12.9601 2.64921 5.80403 0.557415 -0.750392 0.355246 135 134 136
13.1985 2.61861 5.83879 0.270544 -0.962322 0.0272617 87 87 91
13.2154 2.6308 5.69107 0.338391 -0.932397 0.126993 134 134 138
13.2017 2.61781 5.75123 0.308528 -0.947597 0.0828865 146 147 150
13.2946 2.63248 5.77967 0.319947 -0.947259 0.0182876 108 108 111
13.3307 2.64599 5.70826 0.267062 -0.963651 0.0073593 139 139 142
-0.502226 -5.90017 17.2518 0.797401 0.488158 0.354758 95 153 211
1.14324 -5.57258 16.9244 -0.16067 0.495268 -0.853753 95 152 209
-10.9089 -6.6694 14.4481 0.58588 -0.118096 -0.801747 98 155 211
-5.38083 -5.84311 14.309 0.869454 -0.0974143 0.484314 101 159 215
-0.756384 -5.71032 17.5302 0.810427 0.218929 -0.543395 99 157 214
-1.10358 -5.3795 17.253 0.911949 0.091701 0.399924 100 159 214
-2.13789 -5.75091 18.5482 0.672194 -0.45122 -0.586989 101 158 214
-2.20672 -5.76548 18.603 0.656057 -0.511084 -0.555323 101 158 214
-4.25835 -5.88142 19.9123 0.3431 -0.554854 -0.757904 105 161 215
8.19813 -3.86662 15.9277 -0.325271 0.414749 -0.849813 106 163 216
-8.7757 -5.34686 13.447 0.499029 -0.579126 -0.644657 109 165 217
9.43545 -3.59267 17.1025 -0.401376 0.374075 -0.836041 113 170 219
-10.142 -5.06187 13.1074 0.420575 -0.289754 -0.859744 112 166 215
5.04013 -3.97732 17.0437 -0.276286 0.258162 -0.925753 111 168 219
-7.38802 -4.96388 16.223 0.248419 0.076586 -0.96562 113 168 218
1.62432 -3.40897 13.6295 0.825103 0.387474 0.411181 120 176 223
0.822221 -3.63596 14.6791 0.837831 0.368389 0.402899 119 176 223
1.24431 -3.58186 14.5087 0.836789 0.368547 0.404915 115 172 221
0.704191 -3.69631 15.0458 0.841635 0.359918 0.402629 115 172 221
1.46209 -3.34907 13.8208 0.819593 0.409308 0.400916 121 177 223
0.960212 -3.47827 14.4158 0.83744 0.36492 0.40685 120 177 223
12.2367 -2.82863 17.6171 -0.156612 -0.129377 -0.97915 127 181 224
13.7553 -2.58 15.965 -0.566355 0.182988 -0.80359 125 180 224
1.02092 -3.33208 14.22 0.791363 0.488933 0.367 123 179 224
0.81556 -3.40425 14.6191 0.841549 0.358456 0.40411 122 178 224
11.4946 -2.89304 18.2073 -0.0916724 -0.289955 -0.95264 128 182 225
12.9391 -2.6162 17.5153 -0.559734 0.188363 -0.80698 131 184 225
1.14964 -3.39621 17.0264 0.30912 0.912953 -0.266386 127 183 226
0.313335 -3.53651 18.0309 0.0980641 0.548413 -0.830437 127 181 224
13.6966 -2.34345 16.6902 -0.580673 0.0489363 -0.812665 134 187 226
15.7344 -2.01735 15.6297 -0.277991 0.248424 -0.927904 131 187 226
12.8982 -2.26178 17.0972 -0.220437 0.198957 -0.954894 135 189 228
12.8982 -2.26178 17.0972 -0.220437 0.198957 -0.954894 135 189 228
16.9696 -1.79353 14.9914 -0.307665 -0.0249286 -0.951168 132 188 225
17.0412 -1.78934 14.9996 -0.279357 -0.144941 -0.949185 132 188 226
16.3846 -1.86892 15.8333 -0.312294 -0.0558365 -0.948343 139 191 225
16.6123 -1.8542 15.6537 -0.200929 -0.343749 -0.917314 133 189 226
17.0577 -1.7191 15.0034 -0.31012 -0.0491151 -0.949428 134 189 226
17.1541 -1.71515 14.9333 -0.28728 -0.139127 -0.947689 134 189 226
17.1863 -1.70592 14.9024 -0.31758 -0.0354501 -0.947569 133 189 226
-10.5628 -2.9504 13.6833 0.566309 -0.0777902 -0.820514 141 190 225
16.4556 -1.7059 15.8879 -0.322621 -0.0591391 -0.944679 140 193 227
16.59 -1.6937 15.6906 -0.684364 -0.0220788 -0.728806 145 194 225
13.1637 -1.86843 17.2042 -0.544992 0.265552 -0.795277 150 198 229
13.1629 -1.86854 17.2058 -0.544246 0.26897 -0.794639 150 198 229
15.4686 -1.68906 15.8513 -0.284072 0.127995 -0.950221 143 195 229
16.2882 -1.65883 16.0933 -0.681329 0.082567 -0.727306 147 195 226
15.8327 -1.71444 16.901 -0.30807 -0.172884 -0.935523 143 196 228
16.1912 -1.62246 16.3771 -0.32858 -0.0266033 -0.944102 136 192 228
16.1897 -1.58809 16.3405 -0.341525 0.342166 -0.875376 145 197 228
8.37201 -2.49421 27.8329 -0.366702 0.00988358 -0.930286 153 203 232
8.76571 -2.45904 27.4917 -0.362969 0.0137642 -0.931699 153 203 232
8.9773 -2.41748 27.2023 -0.36644 0.010188 -0.930386 158 205 232
9.31275 -2.39283 26.9312 -0.366557 0.0096379 -0.930346 158 203 229
9.73625 -2.34515 26.2035 -0.357984 -0.200818 -0.911877 156 204 232
16.1448 -1.50097 16.4007 -0.349501 0.286339 -0.892109 148 198 228
16.2902 -1.49003 16.2082 -0.333644 0.383622 -0.861113 141 194 228
7.71959 -2.3594 28.4179 -0.363839 0.0133395 -0.931366 161 206 232
8.27139 -2.3058 27.8747 -0.366679 0.00991564 -0.930295 161 206 233
8.56785 -2.29025 27.6674 -0.365077 0.0116314 -0.930905 156 205 232
8.615 -2.25158 27.4137 -0.365441 0.0120812 -0.930756 161 207 232
8.61885 -2.28235 27.5995 -0.366394 0.0102176 -0.930404 160 206 232
