ply
format ascii 1.0
element vertex 737
property float x
property float y
property float z
property float nx
property float ny
property float nz
property uchar diffuse_red
property uchar diffuse_green
property uchar diffuse_blue
end_header
11.2859 -3.68557 10.9969 -0.0920465 -0.334786 -0.937788 76 130 192
11.4062 -3.70194 11.0154 0.161562 -0.268981 -0.949498 76 130 193
11.493 -3.70344 11.003 -0.201223 -0.213573 -0.955979 75 130 191
11.5432 -3.7158 11.0231 -0.16207 -0.292849 -0.942323 75 129 192
11.817 -3.67337 10.8612 -0.800611 0.343382 -0.491031 71 127 189
11.7438 -3.65857 10.8283 -0.200308 -0.223388 -0.953926 74 130 191
11.9683 -3.64246 10.8544 -0.799028 0.369275 -0.474542 73 127 189
12.0359 -3.65578 10.8755 -0.10549 0.402883 -0.909152 75 130 192
13.2076 -4.07583 12.3962 -0.461681 0.317282 -0.828362 74 128 191
12.1683 -3.67375 10.8427 -0.341578 0.396205 -0.852259 75 129 191
12.2457 -3.67111 10.8065 -0.33902 0.434 -0.834691 74 129 190
5.31201 -4.10826 13.5166 0.303356 0.278611 -0.911236 88 145 205
5.43186 -4.09086 13.472 0.221263 0.170118 -0.960262 88 145 205
5.5133 -4.10271 13.5207 0.153978 0.411017 -0.89853 88 144 204
5.61151 -4.11939 13.5718 0.26384 0.153029 -0.95235 88 144 204
5.94922 -4.2412 13.8334 0.12204 0.636776 -0.761329 86 143 203
6.03037 -4.21093 13.8769 0.125199 0.70363 -0.699449 86 143 204
8.78715 -4.84286 15.9929 -0.350003 0.585408 -0.731297 79 135 198
8.91629 -4.81611 15.9775 -0.386312 0.450715 -0.804748 79 135 198
9.76548 -3.75136 11.5894 -0.566652 -0.342136 -0.749566 75 128 193
9.91621 -3.67156 11.2753 -0.150369 -0.208636 -0.966365 75 130 192
10.02 -3.63735 11.1454 -0.251337 0.385033 -0.88802 79 133 196
10.2731 -3.65502 11.1885 -0.120776 -0.291202 -0.949007 78 132 194
10.3683 -3.65364 11.1726 -0.127471 -0.284309 -0.950221 77 133 194
10.4865 -3.70337 11.2969 -0.172245 -0.213139 -0.961719 78 132 194
10.5345 -3.71569 11.3204 -0.192908 -0.172014 -0.966022 74 128 191
10.5671 -3.73241 11.3563 -0.230942 -0.0773851 -0.969885 74 128 191
10.7013 -3.65527 11.1292 -0.0860812 -0.371999 -0.924233 78 132 194
10.7777 -3.66547 11.1596 0.0522948 -0.435298 -0.898767 77 132 194
10.8887 -3.66377 11.1604 -0.0206489 -0.380644 -0.924491 77 132 195
11.0374 -3.64749 11.1067 -0.0873607 -0.318822 -0.94378 77 132 194
11.2647 -3.60289 10.957 -0.148883 -0.295826 -0.943568 76 131 193
11.3437 -3.60648 10.9542 -0.175592 -0.214343 -0.960846 77 132 193
11.3759 -3.62423 10.9946 -0.206055 -0.19437 -0.959042 77 131 193
11.4644 -3.62258 10.9715 -0.178384 -0.258102 -0.949506 77 131 193
11.5417 -3.62551 10.9652 -0.152766 -0.309138 -0.938667 77 131 192
11.6333 -3.62548 10.949 -0.186445 -0.254857 -0.948834 77 131 192
12.9335 -4.08508 12.7501 -0.346151 0.173246 -0.922044 76 130 192
11.7319 -3.58772 10.8313 -0.277275 -0.0280058 -0.960382 76 131 192
11.778 -3.59943 10.8501 -0.258427 -0.079873 -0.962723 75 131 192
11.8545 -3.60352 10.8444 -0.211591 -0.15286 -0.96533 76 131 193
12.0843 -3.58412 10.8435 -0.281066 0.713142 -0.642207 74 128 191
12.1418 -3.61332 10.8807 -0.341924 0.381388 -0.858854 76 130 193
12.1758 -3.62729 10.8958 -0.343564 0.391097 -0.853819 76 130 191
12.28 -3.61612 10.8321 -0.309737 0.563842 -0.765601 75 130 191
13.4231 -4.01162 12.355 -0.449662 0.463072 -0.763786 76 129 191
1.39061 -3.07477 9.97157 -0.180529 0.172845 -0.968263 85 141 200
4.83327 -4.10346 13.8106 -0.43679 0.637884 -0.634286 81 136 197
5.40325 -4.0405 13.5409 0.200372 0.112991 -0.973183 90 146 205
5.47217 -4.04486 13.5651 0.161775 0.33411 -0.928547 89 145 205
5.56198 -4.04349 13.5749 0.191065 0.137786 -0.971859 89 145 205
5.57183 -4.06155 13.6176 0.166827 0.263499 -0.950125 89 145 205
5.71028 -4.09569 13.591 0.607978 0.15348 -0.778978 92 150 208
5.79593 -4.12689 13.6776 0.544762 0.20215 -0.813861 86 143 204
5.92672 -4.16155 13.8313 0.129878 0.428518 -0.89415 87 144 205
8.99465 -4.72621 15.9799 -0.354914 0.45887 -0.81454 82 138 200
9.27476 -4.68894 15.7874 -0.394103 0.442988 -0.80526 81 135 199
9.27476 -4.68894 15.7874 -0.394103 0.442988 -0.80526 81 135 199
9.39122 -4.64892 15.6996 -0.33574 0.57874 -0.743195 83 137 199
9.70686 -3.64983 11.5988 -0.663358 -0.174333 -0.727712 76 131 194
9.79875 -3.65703 11.5136 -0.568055 -0.119736 -0.814234 77 131 194
9.81242 -3.57326 11.183 -0.102524 -0.136453 -0.985327 80 135 197
9.89479 -3.57405 11.1755 -0.173958 -0.141141 -0.974586 79 134 195
9.97858 -3.57213 11.1535 -0.629811 -0.256882 -0.733042 75 130 193
10.0428 -3.5553 11.0983 0.0457143 0.18112 -0.982398 81 135 197
10.106 -3.55879 11.1134 0.0489646 0.194339 -0.979712 81 135 197
10.2417 -3.57481 11.1558 -0.121842 -0.288612 -0.949662 79 134 195
10.311 -3.58099 11.1643 -0.114018 -0.308135 -0.944486 79 134 195
10.3973 -3.58206 11.1571 -0.0502998 -0.269446 -0.961701 79 134 196
10.5949 -3.63505 11.275 -0.173924 -0.221042 -0.95963 74 129 192
10.653 -3.57591 11.0993 -0.136458 -0.286838 -0.94821 78 134 195
10.7608 -3.57254 11.0794 -0.114828 -0.330847 -0.936672 79 133 195
10.8427 -3.57973 11.1128 0.0147562 -0.390055 -0.920673 78 133 195
10.9263 -3.58488 11.131 -0.0894928 -0.315452 -0.944712 79 133 196
11.0224 -3.5899 11.1383 -0.103818 -0.300395 -0.948148 78 133 195
11.1463 -3.57559 11.094 -0.072021 -0.348442 -0.934559 76 130 193
11.2274 -3.58031 11.0807 -0.0485815 -0.380356 -0.923563 76 130 193
11.3873 -3.53226 10.9263 -0.21047 -0.184193 -0.960091 78 133 194
11.5245 -3.54154 10.9221 -0.182101 -0.256284 -0.949293 77 132 194
11.6102 -3.54181 10.9064 -0.164816 -0.29371 -0.941578 78 132 193
11.6631 -3.52694 10.8611 -0.224634 -0.173803 -0.958818 78 132 194
11.7569 -3.52214 10.8278 -0.217142 -0.12482 -0.968127 77 132 194
11.7987 -3.53515 10.8516 -0.215635 -0.206983 -0.954285 77 132 193
11.8121 -3.5594 10.9101 -0.160628 -0.315405 -0.935264 76 132 193
11.9329 -3.56334 10.8589 -0.327045 0.398953 -0.856667 77 132 194
12.0133 -3.58507 10.8746 -0.328254 0.426063 -0.843042 77 131 193
12.1837 -3.5309 10.8489 -0.326043 0.477264 -0.816036 77 132 193
13.5528 -4.02975 12.5007 -0.474727 0.386783 -0.790591 77 130 191
1.41773 -3.00514 10.0139 -0.271932 0.331657 -0.903359 86 142 201
1.66654 -2.98581 9.92117 -0.265648 -0.0800602 -0.96074 87 142 202
4.7889 -4.0697 13.877 0.146991 0.51183 -0.846418 81 136 198
5.05484 -3.98854 13.5617 -0.129233 0.571109 -0.810638 85 141 201
5.36174 -3.96374 13.541 0.17542 0.263643 -0.948536 90 146 206
5.78111 -4.06877 13.806 0.627456 0.632746 -0.453798 89 145 205
8.96986 -4.63899 16.0313 -0.367497 0.449165 -0.814369 89 146 207
9.05527 -4.64543 16.0061 -0.382784 0.376557 -0.843612 84 139 201
9.20835 -4.6639 15.849 -0.35312 0.597353 -0.720053 80 136 200
9.48648 -4.58893 15.7554 -0.378192 0.452226 -0.807752 81 137 201
9.51188 -4.57907 15.7196 -0.357432 0.527203 -0.770908 81 137 200
9.92933 -4.59416 15.4713 -0.735685 0.405666 -0.542404 77 132 195
9.85006 -3.50364 11.1723 -0.171874 -0.145189 -0.974361 81 135 196
9.93477 -3.50169 11.1551 0.0840217 -0.551307 -0.830061 81 135 196
9.98297 -3.48934 11.1147 -0.119211 -0.145158 -0.982201 82 136 198
10.0674 -3.49226 11.1177 -0.0358051 0.0396577 -0.998572 80 135 197
10.1338 -3.49529 11.125 -0.0334501 -0.160106 -0.986533 81 136 197
10.1975 -3.50094 11.1409 -0.109749 -0.244898 -0.963317 81 136 197
10.2782 -3.50276 11.1371 -0.135596 -0.267294 -0.954027 81 135 196
10.3737 -3.50056 11.1173 -0.0576501 -0.405216 -0.912402 80 135 196
10.4295 -3.51339 11.1536 -0.0562806 -0.411952 -0.909466 79 134 196
10.5347 -3.5069 11.1255 -0.15306 -0.251531 -0.95567 79 135 196
10.6031 -3.50378 11.0947 0.109288 -0.121994 -0.986496 79 135 196
10.7971 -3.49908 11.0745 0.00716725 -0.431795 -0.901943 80 134 196
10.8976 -3.49884 11.0753 -0.0433464 -0.376645 -0.925343 80 135 196
10.9732 -3.50547 11.0927 -0.031406 -0.395081 -0.918109 80 135 196
11.115 -3.49196 11.0447 -0.0931372 -0.319325 -0.943057 80 135 196
11.3041 -3.48846 11.0158 0.00526518 -0.436351 -0.899761 79 134 195
11.4381 -3.47518 10.9841 -0.119859 -0.296133 -0.947596 79 134 196
11.5122 -3.48483 10.9505 -0.206275 -0.212203 -0.955207 78 134 195
11.639 -3.47085 10.8887 -0.186218 -0.259474 -0.947627 78 133 194
11.7305 -3.44699 10.8115 -0.276314 -0.0334183 -0.960486 78 133 194
11.7764 -3.48522 10.8986 -0.220818 -0.201569 -0.954258 83 139 199
11.777 -3.45803 10.8298 -0.23933 -0.15152 -0.959043 78 133 194
11.9078 -3.50179 10.8919 -0.330135 0.358473 -0.873217 77 132 194
12.0183 -3.51414 10.8783 -0.330699 0.404723 -0.852548 77 132 194
12.0575 -3.52523 10.8867 -0.333536 0.402318 -0.852581 77 132 194
13.2385 -3.9695 12.5723 -0.462972 0.362804 -0.808721 76 131 193
13.2348 -3.97019 12.5705 -0.463273 0.35809 -0.810648 76 131 193
12.1762 -3.5081 10.804 -0.321798 0.484672 -0.813351 77 132 193
13.4209 -3.94188 12.5863 -0.391092 0.367675 -0.843719 76 131 192
13.5504 -3.96311 12.5698 -0.392514 0.638543 -0.661964 77 131 192
13.6276 -3.92681 12.6126 -0.476614 0.088812 -0.874615 76 130 190
1.47167 -2.93578 9.95166 -0.268174 0.46996 -0.840964 87 143 202
4.4666 -3.9523 13.9086 -0.0221671 -0.13121 -0.991107 87 143 202
4.99847 -3.91565 13.5816 0.173321 0.471507 -0.864663 86 142 202
5.17645 -3.91485 13.6223 0.279918 0.307227 -0.909537 88 145 204
8.62469 -4.6599 16.2606 -0.368427 0.506961 -0.779264 83 139 201
8.62339 -4.66394 16.2485 -0.367313 0.510682 -0.777358 83 139 201
8.62225 -4.67479 16.2527 -0.335542 0.539985 -0.771899 84 140 202
8.62225 -4.67479 16.2527 -0.335542 0.539985 -0.771899 84 140 202
8.62319 -4.66402 16.2487 -0.36745 0.510112 -0.777667 83 139 201
8.70237 -4.63094 16.1521 -0.367565 0.414651 -0.832442 85 141 202
9.02086 -4.59899 16.0202 -0.370845 0.437569 -0.819151 85 140 201
9.2575 -4.54577 15.8115 -0.388654 0.461051 -0.797734 82 138 201
9.29986 -4.55084 15.7534 -0.382401 0.38971 -0.837792 84 140 202
9.34385 -4.5699 15.7775 -0.384312 0.393939 -0.834935 83 139 201
9.44327 -4.56899 15.7296 -0.371349 0.470474 -0.800471 83 139 201
9.79312 -4.47042 15.467 -0.382804 0.442951 -0.810713 83 139 201
9.85429 -4.48292 15.467 -0.391245 0.413132 -0.822344 84 140 201
9.87653 -4.50983 15.5182 -0.395342 0.404396 -0.824723 83 138 200
9.83082 -3.48917 11.2412 -0.216748 0.306768 -0.926776 82 137 198
9.95481 -3.42695 11.1392 -0.0845605 0.111184 -0.990196 88 143 202
10.0351 -3.42759 11.1333 -0.106119 -0.0652558 -0.99221 83 137 199
10.1639 -3.42726 11.1227 -0.107326 -0.249615 -0.962379 82 137 198
10.2482 -3.42822 11.1154 -0.109004 -0.251589 -0.961676 82 137 199
10.3114 -3.43497 11.1285 -0.126105 -0.292002 -0.948068 82 136 197
10.3889 -3.43124 11.1108 -0.0625406 -0.378136 -0.923635 81 136 197
10.4978 -3.42751 11.0916 -0.10687 -0.337438 -0.935262 81 136 197
10.5475 -3.43999 11.1233 -0.111348 -0.334945 -0.935635 80 135 196
10.7293 -3.45986 11.1853 -0.191764 -0.193643 -0.962148 77 132 194
10.7025 -3.43637 11.0794 -0.0668281 -0.340313 -0.937934 80 136 197
10.9335 -3.42435 11.0528 -0.137532 -0.244106 -0.959946 81 136 197
10.9736 -3.43841 11.0879 -0.127083 -0.264341 -0.95602 80 136 197
11.0036 -3.45618 11.1362 -0.234389 -0.0569726 -0.970472 80 136 197
11.0897 -3.4408 11.0568 -0.154111 0.282266 -0.946877 84 140 201
11.1565 -3.41707 11.0167 -0.157874 -0.221715 -0.962247 80 136 197
11.2678 -3.46559 10.9715 -0.120547 -0.284115 -0.951182 79 135 196
11.3338 -3.41714 11.0007 -0.156682 -0.236023 -0.959033 80 135 196
11.4988 -3.4291 10.9821 -0.211242 -0.206761 -0.955315 80 135 196
11.5809 -3.42946 10.9649 -0.211002 -0.213512 -0.953882 79 134 195
11.9002 -3.43669 10.9133 -0.317766 0.445602 -0.836937 79 134 196
11.9906 -3.45425 10.9173 -0.331749 0.385908 -0.860824 78 134 195
13.2319 -3.87732 12.7414 -0.463724 0.377443 -0.801559 78 133 194
13.3085 -3.87611 12.6934 -0.466136 0.378167 -0.799817 77 133 194
12.1292 -3.42895 10.8066 -0.320386 0.470268 -0.822314 79 133 194
12.1855 -3.43623 10.8024 -0.312391 0.515599 -0.797853 79 134 195
13.4697 -3.87461 12.5985 -0.387302 0.399946 -0.830687 77 132 193
13.5503 -3.88838 12.6156 -0.160093 0.544311 -0.823466 79 133 194
1.45897 -2.84456 9.81522 -0.22469 -0.0753569 -0.971512 88 145 204
1.5282 -2.8781 9.90806 -0.282045 0.405435 -0.869525 88 144 203
1.632 -2.87834 9.90174 -0.262759 -0.0887215 -0.960774 88 145 203
1.82525 -2.86008 9.80483 -0.23782 0.583024 -0.776869 88 144 203
4.92368 -3.85706 13.6545 0.231684 -0.0217178 -0.972549 88 143 203
5.15565 -3.83012 13.5874 0.160376 0.444219 -0.881447 90 147 206
8.67165 -4.538 16.2173 -0.38146 0.431997 -0.817231 83 138 200
8.76268 -4.51001 16.0845 -0.373901 0.364874 -0.852681 85 142 202
8.95548 -4.49978 15.9655 -0.385237 0.217716 -0.896768 85 141 203
9.10298 -4.50724 16.0156 -0.372246 0.43648 -0.819096 85 141 202
9.27564 -4.46322 15.7987 -0.378077 0.408502 -0.830773 85 141 202
9.31772 -4.48266 15.8258 -0.384486 0.385235 -0.838906 85 141 202
9.34377 -4.50789 15.8737 -0.383854 0.404247 -0.830205 84 141 202
9.44907 -4.50881 15.8271 -0.374336 0.463453 -0.803171 83 140 202
9.7607 -4.39464 15.5734 -0.350739 0.550668 -0.757461 85 141 202
9.76056 -4.43091 15.4976 -0.385232 0.424826 -0.819219 83 141 202
9.93458 -4.4343 15.5595 -0.33179 0.611589 -0.718244 85 139 200
9.72367 -3.42627 11.3034 -0.191214 -0.0469773 -0.980424 78 134 195
9.77297 -3.41095 11.2211 -0.235321 0.380549 -0.894319 80 136 198
9.85698 -3.41448 11.2149 -0.672135 0.482913 -0.561276 78 133 195
9.96592 -3.31308 10.9809 -0.234617 0.389623 -0.890589 84 139 200
10.1638 -3.36975 11.1388 -0.128473 -0.215686 -0.967974 83 139 199
10.2899 -3.35485 11.0911 -0.105852 -0.261747 -0.959314 87 143 203
10.4462 -3.35087 11.0649 -0.139166 -0.275893 -0.95106 82 138 198
10.5324 -3.35118 11.0532 -0.142463 -0.275172 -0.950781 81 137 197
10.5838 -3.36148 11.0758 -0.152801 -0.259991 -0.953444 81 137 197
10.7123 -3.34932 11.0199 -0.154772 -0.261911 -0.952601 82 137 197
10.76 -3.36056 11.0447 -0.134096 -0.29591 -0.945756 81 136 197
10.8614 -3.35912 11.0677 -0.0973018 -0.378967 -0.92028 81 136 197
10.9484 -3.35892 11.0546 -0.153579 -0.2208 -0.963152 82 137 198
10.9789 -3.37505 11.0968 -0.145554 -0.240374 -0.959705 82 137 198
11.0618 -3.34078 10.9818 -0.242098 -0.0734127 -0.967471 81 137 197
11.2134 -3.35896 11.0213 -0.255264 -0.0589785 -0.965071 81 136 197
11.3382 -3.35528 11.014 -0.0784663 -0.429466 -0.899668 81 137 196
11.4869 -3.37276 11.0123 -0.236326 -0.152058 -0.959702 81 136 196
12.936 -3.8277 12.8392 -0.315572 -0.280068 -0.906629 80 135 196
11.6891 -3.38756 10.8536 -0.284428 -0.103301 -0.953116 76 131 193
11.9105 -3.36609 10.9156 -0.314046 0.458214 -0.831514 80 135 196
11.9337 -3.38209 10.9429 -0.311046 0.484075 -0.817877 80 135 196
12.065 -3.38367 10.893 -0.322673 0.452375 -0.831407 77 131 192
13.3834 -3.79922 12.6731 -0.46422 0.400908 -0.789793 79 134 195
1.38958 -2.78462 9.8934 -0.146433 0.17657 -0.973335 89 146 205
1.50006 -2.78317 9.86563 -0.189547 -0.122519 -0.974198 90 146 204
1.6143 -2.78085 9.84797 -0.0683927 -0.21117 -0.975054 90 147 204
5.07492 -3.76657 13.6239 0.160968 0.456771 -0.8749 90 145 203
5.1068 -3.77862 13.6588 0.158622 0.456326 -0.87556 89 145 204
6.309 -3.6865 13.1963 0.640157 0.580315 -0.503421 92 149 207
8.78766 -4.4041 16.0677 -0.365075 0.41348 -0.834119 85 141 201
8.87495 -4.40839 16.0444 -0.380581 0.318431 -0.868193 86 143 204
8.99938 -4.37998 15.8817 -0.31153 0.147287 -0.938752 86 143 203
9.19711 -4.41036 15.9949 -0.369541 0.453302 -0.811145 84 141 203
9.22143 -4.38544 15.8817 -0.377911 0.402731 -0.833661 85 141 201
9.28913 -4.39576 15.8762 -0.365135 0.472375 -0.802208 89 145 205
9.34646 -4.41011 15.8852 -0.375962 0.438037 -0.816564 88 145 204
9.52984 -4.41538 15.815 -0.349744 0.544587 -0.762301 87 144 204
9.83896 -4.36526 15.6323 -0.401278 0.359294 -0.842546 84 139 202
9.86993 -4.38831 15.6729 -0.408789 0.309799 -0.858438 84 139 202
9.95861 -4.38424 15.611 -0.356819 -0.0641219 -0.93197 83 139 202
9.87423 -3.31336 11.1391 -0.227068 0.458697 -0.859091 83 139 199
11.7677 -3.95808 13.6348 -0.286105 -0.232852 -0.929475 82 139 200
11.718 -3.95584 13.6187 -0.352907 -0.123093 -0.927526 82 139 199
11.7666 -3.92138 13.5323 -0.222653 -0.322803 -0.919904 82 139 200
10.6059 -3.29334 11.0673 -0.130387 -0.309118 -0.942043 83 138 198
10.6305 -3.28278 11.0176 0.0548728 -0.559369 -0.8271 83 139 198
10.7517 -3.27645 10.9939 -0.0126561 -0.414622 -0.909906 83 138 199
10.8752 -3.29494 11.0742 -0.152875 -0.288594 -0.945168 83 138 199
11.1909 -3.34239 10.9843 -0.251364 -0.0625202 -0.965871 81 137 197
11.2761 -3.34806 11.0031 -0.175393 -0.267997 -0.94732 81 137 197
11.4305 -3.33097 11.0936 -0.297826 0.27553 -0.913993 88 144 203
11.7459 -3.30978 10.9517 -0.290628 0.519927 -0.803251 81 136 197
11.7485 -3.31002 10.9553 -0.29715 0.496671 -0.815488 81 136 197
11.7472 -3.33184 10.8744 -0.266445 0.588096 -0.763643 81 136 197
11.8969 -3.32758 10.8969 -0.300889 0.504492 -0.809292 81 136 197
11.9638 -3.32947 10.9789 -0.32445 0.424098 -0.845502 81 136 196
13.2754 -3.77885 12.6914 -0.452125 0.434622 -0.778901 80 134 196
13.3298 -3.78876 12.6816 -0.447977 0.462327 -0.765226 79 134 196
12.2831 -3.24756 10.6686 -0.273018 0.610957 -0.743097 80 136 196
1.72356 -2.72124 9.81465 -0.0984897 0.778665 -0.619662 92 147 205
1.71634 -2.77011 9.87059 -0.180426 -0.317543 -0.930921 91 146 205
1.80087 -2.77282 9.85008 -0.272368 0.476392 -0.835982 90 146 205
4.7643 -3.38613 12.2781 0.706312 0.526068 -0.473683 93 149 206
6.27921 -3.7199 13.5703 0.643423 0.578182 -0.50171 93 152 209
6.28377 -3.66678 13.4537 0.40411 0.614407 -0.677643 93 150 208
6.25312 -3.65238 13.3571 0.247773 0.60258 -0.758621 93 150 208
6.44648 -3.71874 13.4917 0.377914 0.622847 -0.685013 96 154 211
8.80896 -4.33427 16.1408 -0.331091 0.434237 -0.837745 87 144 205
8.76983 -4.31448 16.1033 -0.343473 0.496426 -0.797237 88 145 205
9.00118 -4.3036 16.066 -0.37537 0.388479 -0.841535 88 144 205
8.9323 -4.32412 16.0681 -0.353422 0.479234 -0.803385 88 144 205
9.15501 -4.31819 16.0341 -0.332018 0.563326 -0.75659 87 144 205
9.30542 -4.3304 15.9612 -0.366303 0.472504 -0.8016 91 146 206
9.44407 -4.31539 15.8584 -0.386501 0.390638 -0.835475 90 146 205
9.49188 -4.3323 15.8783 -0.386998 0.402445 -0.829621 85 141 202
9.86348 -4.26589 15.6565 -0.40653 0.310659 -0.8592 85 141 203
10.0757 -4.19844 15.1587 -0.380782 0.444335 -0.810908 91 149 209
9.9572 -3.26194 11.063 -0.239404 0.546342 -0.802618 80 135 197
10.0824 -3.19499 10.9886 -0.247 0.513385 -0.821844 82 138 199
10.0941 -3.24096 11.0056 -0.246562 0.528651 -0.812241 82 137 199
10.115 -3.21444 11.0586 -0.25187 0.5109 -0.821914 87 144 204
11.7543 -3.85748 13.5756 -0.289858 -0.215621 -0.932464 83 140 201
11.7941 -3.87891 13.6246 -0.310333 -0.248469 -0.917582 83 141 200
11.9086 -3.87239 13.571 -0.32195 -0.179543 -0.929577 82 138 199
10.5131 -3.22679 10.8918 -0.202876 -0.110215 -0.972982 83 139 198
10.978 -3.28542 11.0324 -0.239781 -0.0790729 -0.967601 82 138 198
10.9923 -3.2855 11.0274 -0.196031 -0.141397 -0.97035 83 138 199
12.3765 -3.83713 13.321 -0.301359 -0.274734 -0.913074 87 143 202
11.1242 -3.2652 10.9427 -0.231058 -0.0625297 -0.970928 83 138 199
11.1043 -3.24916 10.8985 -0.173312 0.00376139 -0.98486 83 138 199
11.2131 -3.27825 10.986 -0.252668 -0.0655439 -0.96533 82 138 198
11.2811 -3.28085 10.9751 -0.256472 -0.0615226 -0.964592 82 138 197
11.4402 -3.27929 11.2 -0.176431 0.240548 -0.954468 83 141 201
12.7353 -3.7674 12.9822 -0.320924 -0.267471 -0.908552 86 142 202
12.8283 -3.76834 12.9519 -0.34561 -0.227024 -0.910502 86 142 202
11.7095 -3.27902 10.9582 -0.286768 0.524703 -0.80153 81 137 197
11.7187 -3.25314 11.0245 -0.312155 0.423271 -0.85053 82 138 198
11.7996 -3.27001 10.9681 -0.307204 0.461162 -0.832439 81 137 197
11.8541 -3.27546 10.9609 -0.293993 0.49514 -0.81756 81 137 197
11.9891 -3.27572 10.9808 -0.319624 0.449829 -0.833963 82 137 197
13.3031 -3.68158 12.6653 -0.44943 0.440072 -0.777399 82 136 197
12.1996 -3.25085 10.778 -0.293253 0.557195 -0.776876 81 137 197
13.5357 -3.72484 12.7252 -0.846919 -0.142096 -0.512383 79 133 194
13.6184 -3.70698 12.6135 -0.326028 -0.308913 -0.893464 84 141 200
1.55 -2.6947 9.84389 -0.0867662 -0.170568 -0.981518 93 149 206
3.38856 -3.18758 11.9789 0.82386 0.368808 -0.43039 87 144 204
4.75869 -3.32592 12.333 0.690863 0.565256 -0.450771 95 150 208
5.49957 -3.59705 13.4961 0.164701 0.41205 -0.896152 91 148 207
5.58944 -3.58891 13.5593 0.469383 0.645991 -0.601976 94 152 209
5.79759 -3.63261 13.4987 0.154691 0.492027 -0.856726 94 151 209
6.14184 -3.61829 13.4423 0.261745 0.594022 -0.760676 94 151 208
6.43203 -3.65035 13.6052 0.142353 0.662375 -0.735524 93 150 208
7.00442 -3.74784 13.973 -0.144065 0.371402 -0.917227 84 141 201
8.82847 -4.23255 16.129 -0.344621 0.495389 -0.797387 89 146 206
8.90706 -4.2303 16.103 0.625044 0.492552 -0.605568 90 146 206
9.1724 -4.30604 16.2372 -0.404849 0.36146 -0.839907 91 147 207
9.30023 -4.29354 16.1532 -0.383972 0.411874 -0.826393 85 140 201
9.46611 -4.24422 15.9237 -0.38194 0.408806 -0.828854 87 142 202
10.0158 -4.18096 15.6183 -0.393154 0.425964 -0.814852 94 151 210
10.0179 -4.18268 15.6217 -0.391863 0.432602 -0.811972 94 151 210
10.0533 -4.1349 15.4835 -0.377226 0.478633 -0.79285 93 151 210
10.0564 -4.18796 15.5318 -0.282977 0.651836 -0.703586 93 150 209
10.0563 -4.18793 15.5317 -0.340995 0.585091 -0.735793 93 150 209
10.0444 -4.11979 15.2201 -0.375973 0.458737 -0.805112 85 141 201
10.1348 -4.12123 15.1807 -0.39173 0.397974 -0.829557 85 141 201
9.79014 -3.23725 11.2775 -0.59918 -0.243013 -0.762842 81 136 197
9.84995 -3.22743 11.2361 -0.201757 -0.0268985 -0.979066 81 137 197
9.93188 -3.1479 11.0678 -0.206916 0.618532 -0.758026 84 139 200
10.0531 -3.15512 10.9861 -0.206578 0.533455 -0.820214 86 142 201
10.0785 -3.18267 11.0828 -0.240986 0.555788 -0.795629 84 140 201
10.0653 -3.18185 11.0761 -0.250557 0.50412 -0.826489 84 140 201
10.2222 -3.1447 10.9678 -0.616169 0.601663 -0.508269 81 136 197
11.7071 -3.8041 13.6608 -0.293448 -0.279494 -0.914205 85 142 201
11.7089 -3.80497 13.6652 -0.293082 -0.280461 -0.914026 85 142 201
11.7086 -3.80507 13.6656 -0.295682 -0.275687 -0.914641 85 142 201
10.6213 -3.19504 10.9564 -0.133759 -0.299916 -0.944542 85 140 199
10.7176 -3.19439 10.9435 -0.0800906 -0.326192 -0.941905 84 140 200
10.9115 -3.22645 11.0654 -0.237656 -0.0842199 -0.967691 89 146 205
12.3824 -3.7339 13.2532 -0.385962 -0.110486 -0.915874 83 138 197
11.0234 -3.18308 10.9507 -0.730024 -0.169194 -0.662147 81 136 196
11.0893 -3.17743 10.8843 -0.144877 0.121112 -0.982009 84 140 200
11.1303 -3.18699 10.9065 -0.16416 0.0327341 -0.98589 84 139 199
11.1634 -3.19895 10.9372 -0.291884 0.313752 -0.903528 84 139 199
11.4404 -3.24838 11.133 -0.0971208 0.325809 -0.940434 83 138 199
11.4749 -3.21827 11.2142 0.0207495 0.65261 -0.75741 84 140 199
11.5471 -3.25111 11.1883 -0.291046 0.506997 -0.811324 80 136 197
11.5774 -3.25246 11.1165 -0.303373 0.451429 -0.839152 82 139 199
12.7749 -3.67954 12.9435 -0.384983 -0.135526 -0.912919 88 144 203
11.6983 -3.23761 11.0368 -0.305762 0.452302 -0.837814 83 139 198
11.7682 -3.18184 10.9885 -0.289408 0.517364 -0.805343 83 139 199
11.7932 -3.22871 11.0452 -0.282101 0.55555 -0.782166 82 139 198
11.9053 -3.21636 10.9745 -0.266666 0.559193 -0.78498 83 139 199
11.9582 -3.1778 10.9968 -0.289174 0.548094 -0.784838 84 139 199
11.9902 -3.20916 10.996 -0.309128 0.489834 -0.81517 83 138 198
12.1013 -3.24187 10.9921 -0.33246 0.403078 -0.852642 80 135 194
13.2868 -3.61167 12.7123 -0.440467 0.469701 -0.765095 83 137 198
13.2868 -3.61167 12.7123 -0.440467 0.469701 -0.765095 83 137 198
12.245 -3.17282 10.7715 -0.292058 0.558305 -0.776529 83 138 198
13.5717 -3.63515 12.6573 -0.404981 -0.161301 -0.899985 79 134 194
12.345 -3.18138 10.6919 -0.246216 0.587275 -0.771029 82 137 197
13.6558 -3.62551 12.5783 -0.329646 -0.159501 -0.930534 83 140 200
3.34133 -3.12701 12.0186 0.551252 0.183925 -0.813814 99 156 212
3.41327 -3.15254 12.0794 0.425984 0.618417 -0.660377 93 150 208
3.83033 -3.15603 12.0978 0.699789 0.5882 -0.405358 90 145 204
4.57862 -3.19138 12.1624 0.748111 0.466956 -0.471469 96 152 208
5.51683 -3.52174 13.5668 0.448284 0.650406 -0.6132 95 153 209
5.76158 -3.5597 13.5938 0.475996 0.632943 -0.610583 94 151 208
5.75387 -3.54905 13.4929 0.157419 0.528862 -0.833981 95 152 210
6.634 -3.7187 14.1037 0.598863 0.628195 -0.496724 85 141 202
6.74274 -3.71812 14.1206 0.107112 0.445094 -0.889055 90 148 207
6.8064 -3.68528 13.9847 0.612966 0.599599 -0.514542 90 147 206
6.98798 -3.69779 14.1213 -0.149535 0.276166 -0.949406 86 142 202
7.13372 -3.70576 14.2544 0.66665 0.487835 -0.563555 93 150 207
7.13348 -3.70589 14.2545 0.668458 0.483859 -0.56484 93 150 207
8.86009 -4.16177 16.2337 0.461081 0.574627 -0.676171 90 147 206
8.97749 -4.22124 16.1889 0.350551 0.559933 -0.750726 89 144 204
9.07616 -4.19192 16.2662 -0.36206 0.472838 -0.803328 89 144 204
9.22095 -4.1826 16.1805 -0.387568 0.353822 -0.851235 89 145 204
9.23521 -4.21751 16.2437 -0.394056 0.341447 -0.853307 88 143 202
9.37497 -4.20367 16.1537 -0.388763 0.393443 -0.833106 85 139 200
9.51397 -4.13301 15.8741 -0.360112 0.498498 -0.788555 88 144 204
9.5372 -4.15802 15.9294 -0.362084 0.500336 -0.786485 87 142 202
9.5372 -4.15802 15.9294 -0.362084 0.500336 -0.786485 87 142 202
9.76032 -3.145 11.2072 -0.363416 -0.194209 -0.911159 84 137 198
9.84313 -3.14086 11.1783 -0.247462 0.476014 -0.843904 82 137 198
10.0458 -3.09528 11.053 -0.143873 0.686213 -0.713031 85 140 200
10.0674 -3.13767 11.0649 -0.230559 0.586658 -0.776322 84 139 199
10.1307 -3.14489 11.1094 -0.239744 0.568591 -0.78691 83 139 200
11.5069 -3.70186 13.6606 -0.300804 -0.254321 -0.919151 85 141 200
11.6695 -3.70999 13.6267 -0.245669 -0.325831 -0.912952 86 143 201
10.5964 -3.11741 10.9197 -0.208141 -0.115704 -0.971231 84 140 199
10.6621 -3.12288 10.9303 -0.106302 -0.284696 -0.952706 85 141 201
10.8749 -3.14146 11.0245 -0.242761 -0.163685 -0.956177 80 137 197
10.9523 -3.14048 10.9999 -0.723547 -0.179886 -0.666424 81 137 197
11.0907 -3.14303 10.9823 -0.245061 -0.0775965 -0.966397 92 148 204
11.1502 -3.10561 10.8562 -0.163556 0.105009 -0.980929 90 146 205
11.6748 -3.17746 11.0755 -0.2605 0.595518 -0.759933 85 140 199
11.7146 -3.1428 11.1168 -0.265742 0.565771 -0.780567 85 141 200
11.8482 -3.18863 11.0642 -0.213215 0.699594 -0.681988 84 140 198
12.0469 -3.1271 10.9762 -0.300783 0.51781 -0.800876 84 140 199
12.1056 -3.15044 10.9444 -0.320607 0.450444 -0.833253 84 139 199
12.1153 -3.16983 10.9881 -0.325309 0.440422 -0.836781 81 137 197
12.1717 -3.17456 10.9777 -0.330773 0.425698 -0.842241 81 136 195
13.3276 -3.53558 12.6469 -0.406247 -0.130689 -0.904369 83 138 198
12.2128 -3.1095 10.9328 -0.241255 0.122211 -0.962736 81 138 198
12.2722 -3.11374 10.9304 -0.349003 0.21685 -0.911687 84 140 199
12.3434 -3.10802 10.8788 -0.268689 0.213303 -0.939313 84 140 199
12.3179 -3.12792 10.7705 -0.303433 0.530271 -0.79167 83 138 198
13.6989 -3.53362 12.5327 -0.298088 -0.299624 -0.906294 80 136 196
3.19725 -3.09319 11.9763 0.50922 0.501536 -0.699397 100 157 212
3.26916 -3.11142 12.004 0.558331 0.188157 -0.807999 100 157 212
3.38579 -3.04763 11.9732 0.54948 0.21583 -0.807149 100 158 213
3.74398 -3.1058 12.1768 0.64954 0.535028 -0.540224 99 154 210
3.81063 -3.10817 12.2187 0.761641 0.484583 -0.430212 91 146 205
5.41401 -3.45014 13.4946 0.437964 0.454037 -0.775911 97 154 210
5.68528 -3.4952 13.6021 0.429165 0.642709 -0.634619 96 153 210
6.09938 -3.45827 13.6343 0.148193 0.569037 -0.808849 102 159 214
6.05831 -3.44061 13.5108 0.352593 0.589972 -0.726368 98 154 210
6.21178 -3.49873 13.6066 0.14519 0.540416 -0.828776 96 153 209
6.39817 -3.53653 13.7469 0.135138 0.567249 -0.812383 95 152 209
6.67852 -3.64784 14.1572 0.107995 0.460564 -0.881032 92 149 207
6.77719 -3.63603 14.1222 0.644897 0.548937 -0.531767 91 149 207
6.96343 -3.6141 14.1697 0.0413399 0.940862 -0.33626 88 143 203
7.15664 -3.67734 14.3092 0.694793 0.414888 -0.587478 94 151 208
7.16613 -3.65636 14.147 0.505244 0.716945 -0.480331 93 150 207
7.85191 -4.08184 16.2964 -0.222729 -0.305126 -0.9259 91 146 204
7.85191 -4.08184 16.2964 -0.222729 -0.305126 -0.9259 91 146 204
8.94919 -4.14683 16.2962 -0.374986 0.397933 -0.837278 91 148 206
9.07847 -4.09645 16.2865 -0.358699 0.47925 -0.801033 90 145 204
9.23686 -4.07852 16.1663 -0.388051 0.358132 -0.84921 94 151 209
9.29042 -4.09278 16.1806 -0.386951 0.380437 -0.839962 89 145 204
9.51388 -4.07364 15.986 -0.368523 0.474631 -0.799322 88 144 203
9.52444 -4.12661 16.0648 -0.346918 0.442004 -0.827213 85 140 200
9.53306 -4.08692 16.0397 -0.384153 0.42157 -0.821404 85 140 201
9.63061 -4.09707 15.9456 -0.323687 0.51953 -0.790769 86 140 200
9.70854 -3.069 11.1752 0.100968 -0.48588 -0.868174 90 145 203
9.83456 -3.08095 11.1431 -0.636563 -0.253628 -0.728327 83 138 199
9.91707 -3.09669 11.1884 -0.202443 0.49314 -0.846067 83 139 199
10.6808 -3.10942 11.2215 -0.0929474 -0.40354 -0.910229 83 139 199
12 -3.58292 13.3155 -0.312703 -0.253668 -0.915352 86 141 200
10.7834 -3.07067 11.0362 -0.181146 0.0514616 -0.982109 86 143 202
11.0017 -3.07008 10.9189 -0.716318 -0.20379 -0.667352 82 138 198
12.4903 -3.56087 13.1613 -0.340935 -0.231327 -0.911181 85 141 199
12.4903 -3.56087 13.1613 -0.340935 -0.231327 -0.911181 85 141 199
12.7832 -3.49447 12.8945 -0.443067 0.350762 -0.82502 84 140 201
12.7832 -3.51769 12.9246 -0.356631 -0.210719 -0.910171 85 140 200
12.7832 -3.51769 12.9246 -0.356631 -0.210719 -0.910171 85 140 200
11.7741 -3.10191 11.1329 -0.263275 0.596465 -0.758232 85 141 200
11.8106 -3.1316 11.1286 -0.264566 0.600289 -0.754757 85 140 200
11.8489 -3.0978 11.1715 -0.281028 0.564006 -0.77648 86 141 201
11.9072 -3.12116 11.1415 -0.315272 0.458313 -0.830995 83 138 198
11.9265 -3.13734 11.1752 -0.31507 0.47024 -0.824382 82 138 197
13.0423 -3.47261 12.8278 -0.319477 -0.300684 -0.898623 86 140 200
12.1092 -3.08404 10.9825 -0.300394 0.524875 -0.79641 85 141 200
13.4102 -3.4496 12.6023 -0.332678 -0.29487 -0.895755 85 140 199
13.5699 -3.46815 12.6111 -0.306814 -0.334754 -0.890957 83 137 196
13.6355 -3.49099 12.6278 -0.220416 -0.426264 -0.877335 82 136 196
13.7456 -3.47846 12.6132 -0.270463 -0.40928 -0.871401 82 137 196
3.99693 -3.08271 12.1722 0.726647 0.50303 -0.467916 99 155 210
4.29253 -3.04732 12.0951 0.344245 0.804588 -0.483874 99 155 209
4.43891 -3.0422 11.8553 0.695491 0.566018 -0.442624 98 154 209
4.50633 -3.05642 11.9482 0.664648 0.607718 -0.434651 97 154 209
4.89045 -3.23563 12.8027 0.591267 0.618784 -0.517214 97 155 211
5.60886 -3.4293 13.6167 0.406567 0.705877 -0.580035 97 155 211
5.62766 -3.43758 13.7052 0.154555 0.555052 -0.817331 99 157 213
6.0942 -3.44604 13.5883 0.539699 0.494454 -0.681351 98 154 211
6.18166 -3.42471 13.6709 0.144829 0.494811 -0.856847 98 154 211
6.29396 -3.4514 13.7053 0.148382 0.660198 -0.736289 96 153 210
6.73618 -3.59107 14.277 0.474689 0.554176 -0.683783 93 150 208
6.93964 -3.52728 14.1812 0.183391 0.877298 -0.443527 93 151 209
7.0845 -3.60272 14.2107 0.455358 0.67384 -0.581884 95 152 209
7.2342 -3.58364 14.31 0.439913 0.734204 -0.517128 93 151 209
7.19335 -3.5751 14.1953 0.582064 0.620536 -0.525487 91 150 207
7.74418 -3.93055 16.007 -0.282467 -0.138369 -0.949245 97 153 209
7.30675 -3.59133 14.4059 0.423655 0.751451 -0.505803 93 149 208
7.82394 -3.94635 16.1064 -0.125498 -0.404096 -0.906067 93 149 206
7.94626 -3.93509 16.0648 0.0887871 -0.142847 -0.985754 95 152 210
7.50016 -3.61492 14.3129 0.0176192 0.839741 -0.542701 88 143 202
8.54253 -4.0026 16.2001 0.313389 -0.0696919 -0.947064 93 149 208
8.64638 -4.003 16.2367 0.449352 -0.036454 -0.892611 94 150 208
8.84454 -4.08071 16.3187 0.547857 0.506719 -0.665649 97 156 213
9.02751 -4.05566 16.2917 -0.334163 0.532206 -0.777876 92 149 207
9.20107 -3.99566 16.2361 -0.371543 0.436478 -0.819417 96 152 209
9.66936 -2.99469 11.1521 -0.0846634 -0.28476 -0.954853 91 146 204
9.68712 -2.99278 11.1453 -0.0528585 -0.339121 -0.939257 90 146 204
9.80003 -2.99748 11.2014 -0.564928 -0.361096 -0.741934 84 141 199
12.038 -3.49948 13.2817 -0.322045 -0.239967 -0.915807 87 142 201
10.7634 -2.98261 10.9438 -0.626802 -0.348647 -0.696824 84 140 199
10.8348 -2.986 10.9455 -0.116006 0.131242 -0.98454 88 144 203
10.9055 -2.99094 10.9502 -0.0918061 0.0745701 -0.992981 88 144 201
12.3836 -3.5094 13.1918 -0.363292 -0.175055 -0.915082 87 142 200
12.5019 -3.48775 13.1661 -0.341218 -0.236169 -0.909832 87 142 201
11.1124 -2.94821 10.7908 -0.0587505 -0.0385804 -0.997527 88 144 202
12.7538 -3.42455 12.9453 -0.43981 0.364149 -0.820952 85 142 201
12.8377 -3.42232 12.8946 -0.436635 0.396593 -0.807505 85 141 200
11.8184 -3.06559 11.1699 -0.288286 0.536246 -0.793304 86 142 201
12.9577 -3.40638 12.7892 -0.440586 0.389946 -0.808595 86 141 201
12.9577 -3.40638 12.7892 -0.440586 0.389946 -0.808595 86 141 201
13.0245 -3.44479 12.7526 -0.353582 -0.231787 -0.906231 86 141 200
13.1211 -3.40302 12.8101 -0.301301 -0.304532 -0.903592 83 139 198
12.1518 -3.03733 10.9175 -0.323729 0.0421862 -0.945209 86 141 199
13.3519 -3.36717 12.5901 -0.401881 -0.148309 -0.903602 85 140 199
13.3857 -3.35312 12.5337 -0.23235 -0.347947 -0.908265 84 139 199
13.4623 -3.36209 12.5438 -0.281747 -0.379589 -0.88121 85 141 199
13.5697 -3.3869 12.5747 -0.400357 -0.177915 -0.898922 86 141 199
13.6453 -3.3881 12.5444 -0.395261 -0.141082 -0.90767 84 138 197
3.12707 -2.95709 12.0363 0.34882 0.525628 -0.775912 103 162 216
3.39703 -2.97494 11.9928 0.442082 0.437073 -0.783282 96 153 209
3.41208 -2.99365 12.1278 0.480086 0.147437 -0.864743 96 153 209
3.755 -3.03214 12.2417 0.710572 0.571527 -0.410419 100 156 211
3.9226 -3.05001 12.4192 0.0914762 0.813724 -0.574008 110 167 219
3.97019 -3.02576 12.2312 0.691703 0.589979 -0.416501 100 156 210
4.05773 -3.02761 12.2622 0.457051 0.768629 -0.447564 100 156 210
4.17663 -3.0072 12.2449 0.222858 0.905553 -0.360983 101 156 210
4.29097 -2.99535 12.2302 0.28899 0.892068 -0.347419 101 157 211
4.35543 -3.00654 12.3216 0.640327 0.637986 -0.427733 100 156 210
4.4168 -3.0285 12.4081 0.739355 0.489778 -0.462029 100 156 210
4.65809 -3.07343 12.4812 0.490456 0.599661 -0.632344 99 155 210
4.77617 -3.11862 12.6546 0.728257 0.492069 -0.47698 102 159 213
5.05852 -3.24179 13.3107 0.758581 0.37126 -0.535464 102 158 213
5.50737 -3.36829 13.6395 0.41141 0.715876 -0.564148 100 156 211
5.55928 -3.36991 13.7171 0.156674 0.532567 -0.83176 100 158 213
5.6055 -3.34751 13.8374 0.151265 0.526315 -0.836727 101 159 213
5.67653 -3.3972 13.8224 0.228946 0.588054 -0.775743 100 158 214
6.05679 -3.58396 14.9814 -0.214426 0.480835 -0.850187 92 147 205
6.20279 -3.35712 13.6515 0.147437 0.539981 -0.828663 98 155 211
6.22364 -3.3358 13.7089 0.145481 0.548628 -0.823312 99 155 211
6.72826 -3.50107 14.3029 0.480797 0.717907 -0.503432 95 152 209
6.83546 -3.50415 14.3746 0.103844 0.329566 -0.938404 90 146 204
7.05733 -3.51294 14.2479 0.179149 0.865073 -0.468565 95 152 210
7.80243 -3.83132 15.9748 -0.209203 -0.27309 -0.938966 93 149 206
7.46413 -3.55372 14.5822 0.0770749 0.582537 -0.809142 95 153 211
8.40164 -3.92153 16.1224 0.703511 0.0264696 -0.710191 95 151 209
8.47362 -3.92763 16.2018 0.709506 0.168758 -0.684194 95 151 209
8.61001 -3.9096 16.1988 0.586974 -0.296121 -0.753508 100 158 214
8.70657 -3.90877 16.2423 0.699752 0.0822418 -0.709636 101 158 214
9.62784 -2.92611 11.1435 -0.0953756 -0.265364 -0.959419 91 147 205
9.62784 -2.92611 11.1435 -0.0953756 -0.265364 -0.959419 91 147 205
9.61686 -2.87874 10.9114 -0.0441385 0.00170428 -0.999024 97 154 209
9.85863 -2.90867 11.094 -0.176586 -0.153612 -0.972225 90 147 203
9.78827 -2.90022 11.0687 -0.0153402 -0.147087 -0.989005 92 148 205
11.2476 -3.5463 13.8543 0.098975 -0.0753077 -0.992236 88 145 203
9.95559 -2.89214 11.0019 0.0245504 -0.01162 -0.999631 91 147 204
11.4414 -3.48248 13.8119 -6.76513e-06 -0.543603 -0.839343 89 146 204
10.6207 -2.94189 11.0353 -0.704388 -0.196164 -0.682171 85 141 199
10.7202 -2.94461 11.0374 -0.102645 -0.387191 -0.916268 89 145 202
10.871 -2.9196 10.9385 -0.00832571 -0.18195 -0.983272 89 145 203
12.2906 -3.43993 13.2471 -0.337275 -0.232895 -0.912143 87 143 201
10.9452 -2.90398 10.8821 -0.0281509 -0.695766 -0.717716 86 141 199
11.1341 -2.9048 10.8955 -0.202101 0.0981791 -0.974431 89 145 203
11.1924 -2.91282 10.8909 -0.244283 -0.0800298 -0.966396 89 144 202
12.596 -3.41957 13.1553 -0.350475 -0.229028 -0.908137 85 140 199
12.7564 -3.34288 12.9486 -0.437119 0.367084 -0.821082 88 144 202
12.7987 -3.35588 12.9604 -0.436525 0.389804 -0.810863 85 141 200
12.8863 -3.35374 12.9074 -0.4382 0.395389 -0.807247 85 141 200
13.067 -3.36089 12.7073 -0.347095 -0.250202 -0.903839 87 142 200
13.0642 -3.32745 12.6069 -0.333122 -0.271145 -0.903056 87 142 200
13.2065 -3.29285 12.6537 -0.396175 -0.153929 -0.90518 88 143 202
13.3062 -3.27834 12.5507 -0.382539 -0.136512 -0.913799 87 142 201
13.4165 -3.27421 12.5084 -0.25316 -0.353579 -0.900496 85 140 200
13.4645 -3.29384 12.5603 -0.34835 -0.218857 -0.911457 85 140 200
13.5479 -3.29582 12.5345 -0.391513 -0.197066 -0.898823 85 139 198
13.6166 -3.33644 12.6243 -0.38785 -0.162446 -0.907295 89 145 204
13.608 -3.30616 12.5386 -0.39086 -0.131235 -0.911047 84 139 199
3.19251 -2.931 12.1193 0.770134 0.497074 -0.399765 97 156 212
3.36836 -2.93715 12.2587 0.611312 0.699813 -0.369539 109 165 216
3.37488 -2.91551 12.1471 0.589253 0.654392 -0.473868 103 159 212
3.49353 -2.78233 11.3668 0.0192543 0.476836 -0.878782 102 158 211
3.85884 -2.9464 12.2572 0.716228 0.347504 -0.605193 103 158 212
4.05864 -2.97737 12.4192 0.441922 0.818748 -0.366546 94 150 207
4.78335 -3.04874 12.7414 0.708458 0.501706 -0.496364 104 160 214
4.86114 -3.06086 12.8042 0.692247 0.549389 -0.467938 103 160 214
5.23674 -3.18606 13.4262 0.675197 0.561547 -0.478303 98 156 212
5.65044 -3.32093 13.8855 0.150641 0.56425 -0.811744 99 157 211
5.98886 -3.52471 15.0949 0.0999269 0.641232 -0.760813 92 148 206
6.2629 -3.56057 14.8871 0.0874143 0.465671 -0.88063 91 147 205
6.65375 -3.42196 14.3168 0.529621 0.488504 -0.693445 96 154 211
6.79087 -3.43265 14.4197 0.0965619 0.377372 -0.921014 91 147 205
6.8519 -3.43831 14.5444 0.644098 0.541585 -0.540208 92 147 205
7.06446 -3.4599 14.5105 -0.136592 0.760954 -0.634264 91 147 205
7.80515 -3.45502 14.3748 -0.268523 0.408239 -0.872488 95 150 206
8.36531 -3.83273 16.0938 0.465219 0.4608 -0.7558 103 159 215
8.44445 -3.83545 16.1607 0.530889 0.400352 -0.74691 104 159 215
8.67427 -3.81409 16.2682 0.652125 -0.1536 -0.742388 103 159 215
8.3803 -3.52159 14.5627 -0.281587 0.470634 -0.836189 95 150 207
9.49131 -2.80771 10.8892 0.0575558 0.107585 -0.992528 92 149 206
9.58554 -2.81589 10.9241 -0.0539697 -0.0792791 -0.99539 93 149 206
9.63687 -2.80118 10.8975 0.435781 -0.341917 -0.832579 95 152 208
9.63687 -2.80118 10.8975 0.435781 -0.341917 -0.832579 95 152 208
9.77688 -2.81992 11.011 0.209528 -0.440116 -0.873153 93 149 206
9.89234 -2.8378 11.0727 -0.0496129 -0.359217 -0.931935 93 149 206
9.84766 -2.82776 11.0353 -0.163731 -0.170121 -0.971726 92 148 205
10.085 -2.83812 11.0309 -0.146299 -0.189508 -0.970919 92 148 205
10.6555 -2.86409 10.9837 -0.574561 0.101287 -0.812171 87 142 200
10.7193 -2.8323 10.938 -0.745296 -0.0931883 -0.660189 88 144 202
10.8335 -2.85754 10.9534 -0.00529826 -0.150854 -0.988542 90 147 204
10.9119 -2.85043 10.9269 -0.0160945 -0.137631 -0.990353 91 147 205
11.0431 -2.85363 10.9342 -0.115442 -0.385256 -0.91556 91 146 204
11.1871 -2.83021 10.804 -0.0477008 0.14297 -0.988577 90 147 204
12.7807 -3.28334 13.0022 -0.437937 0.376847 -0.816209 87 142 200
12.8438 -3.28876 12.983 -0.443476 0.360179 -0.820731 86 142 200
12.9245 -3.28805 12.9382 -0.444459 0.369712 -0.815947 87 142 200
12.9853 -3.29413 12.9214 -0.42741 0.338592 -0.838257 87 142 200
13.0322 -3.23564 12.5561 -0.292393 -0.340938 -0.893458 88 144 202
13.0511 -3.25727 12.6107 -0.310541 -0.314842 -0.896905 88 144 202
13.1252 -3.29435 12.6958 -0.281851 -0.369334 -0.885524 87 143 201
13.1273 -3.26073 12.5916 -0.402904 -0.118818 -0.907497 87 143 201
13.2271 -3.21223 12.6088 -0.376455 -0.204926 -0.903486 89 144 202
13.3496 -3.1947 12.5062 -0.347417 -0.211188 -0.91362 89 147 204
13.485 -3.21784 12.5467 -0.256139 -0.359505 -0.897301 88 144 203
13.4551 -3.19213 12.4678 -0.257953 -0.352299 -0.899637 92 148 206
13.6336 -3.23261 12.5308 -0.383144 -0.170972 -0.907727 91 148 205
13.6785 -3.24849 12.5602 -0.383125 -0.177449 -0.906492 85 140 200
13.7297 -3.26223 12.5804 -0.375449 -0.197962 -0.905455 84 140 200
1.36752 -2.28842 9.48872 0.821608 -0.354893 -0.446107 116 171 218
3.27603 -2.85987 12.2594 0.592392 0.715574 -0.370169 110 166 217
3.52938 -2.71994 11.4176 0.232356 0.197051 -0.952461 104 160 212
4.03136 -2.95745 12.5646 0.450119 0.754101 -0.478252 102 158 212
4.07122 -2.93475 12.4044 0.623734 0.654759 -0.426903 102 158 212
4.26426 -2.92861 12.3297 0.34487 0.827071 -0.443868 102 158 212
4.32298 -2.94067 12.4253 0.461858 0.734728 -0.496853 102 158 212
4.78807 -2.97252 12.7916 0.727611 0.486681 -0.48345 102 158 212
4.73053 -2.97524 12.8256 0.77661 0.376539 -0.505069 103 158 212
4.85744 -2.98401 12.8649 0.678474 0.568208 -0.465632 105 162 215
5.63116 -3.45281 14.9844 -0.16617 0.654462 -0.737609 96 153 210
5.65203 -3.45205 15.0196 -0.215884 0.513326 -0.830596 96 153 210
5.62531 -3.43293 14.961 -0.0232657 0.263045 -0.964503 96 153 210
5.72277 -3.44617 14.9611 0.105031 0.286386 -0.95234 99 158 213
6.00296 -3.43034 15.0635 0.0884251 0.435549 -0.895811 97 153 210
6.16497 -3.47549 15.0134 0.0858795 0.434342 -0.896645 93 149 206
6.21959 -3.48383 14.9181 0.0888667 0.47231 -0.876941 92 148 206
6.89619 -3.41052 14.4753 0.594265 0.615086 -0.518187 92 148 206
6.97333 -3.40981 14.5654 0.55461 0.662549 -0.503425 97 154 210
7.05782 -3.38087 14.5682 0.244682 0.749925 -0.614608 98 155 212
7.13929 -3.42234 14.4712 0.55157 0.660674 -0.509197 96 153 210
7.26163 -3.39361 14.6488 0.0926488 0.223932 -0.970191 93 148 206
7.34656 -3.38725 14.6254 0.0773736 0.439826 -0.894744 92 148 205
7.39122 -3.39189 14.6517 0.0981647 0.693951 -0.713299 92 148 206
7.86484 -3.65174 15.5528 -0.262656 -0.176093 -0.948685 94 150 206
7.87678 -3.36834 14.3436 -0.255644 0.465155 -0.847512 100 155 210
8.44461 -3.73722 16.0874 0.625449 0.300366 -0.720135 104 161 216
8.5531 -3.73084 16.2088 -0.035308 0.429527 -0.902363 104 163 217
8.35907 -3.44222 14.6017 -0.282303 0.462536 -0.840455 96 152 208
8.48519 -3.45693 14.6066 -0.292847 0.439839 -0.848989 96 152 208
8.78522 -2.65587 10.4386 -0.548013 0.425142 -0.720372 89 145 203
9.46035 -2.74743 10.9072 -0.0373073 -0.0716052 -0.996735 94 150 207
9.53181 -2.74282 10.8876 0.112017 0.113648 -0.987186 93 150 207
9.65812 -2.7269 10.9106 0.302206 0.0256263 -0.952898 97 153 209
9.88855 -2.75548 11.0074 -0.0967048 -0.278223 -0.955636 94 150 207
10.5965 -2.80927 11.0109 -0.7346 -0.113398 -0.668957 89 144 202
10.7829 -2.7716 10.859 -0.160352 -0.207163 -0.965075 92 148 205
10.871 -2.77037 10.8653 0.134763 -0.19252 -0.971995 92 149 205
10.9349 -2.77493 10.8961 -0.0924028 -0.342976 -0.934788 92 148 205
10.9895 -2.78302 10.9216 -0.142965 -0.336327 -0.93083 92 147 204
11.0988 -2.77774 10.8689 -0.279773 0.307722 -0.909414 92 148 205
11.2197 -2.76581 10.8037 -0.201736 0.115318 -0.972628 92 148 205
11.3206 -2.73914 10.6965 -0.296214 0.397366 -0.868538 88 145 203
12.8068 -3.22138 13.047 -0.438383 0.381382 -0.81386 89 143 201
12.9031 -3.21476 12.9752 -0.446987 0.345942 -0.82494 88 143 200
13.0154 -3.14169 12.4937 -0.320044 -0.293253 -0.900874 90 145 203
13.1238 -3.16594 12.5298 -0.382095 -0.17363 -0.907665 89 145 202
13.1026 -3.14326 12.4678 -0.380463 -0.169798 -0.909074 90 145 203
13.1837 -3.17449 12.5313 -0.366161 -0.21836 -0.904569 89 145 203
13.194 -3.20239 12.6133 -0.407319 -0.121117 -0.905219 91 147 205
13.4738 -3.11768 12.4578 -0.347723 -0.220813 -0.911225 93 150 207
13.6047 -3.14655 12.5058 -0.419506 -0.139389 -0.896987 96 151 207
13.6592 -3.15814 12.519 -0.398152 -0.145579 -0.905694 92 149 206
1.40197 -2.20083 9.47566 0.769528 -0.194234 -0.608359 113 168 216
3.09895 -2.77757 12.239 0.741498 0.544965 -0.391399 109 165 217
4.04373 -2.95452 12.9862 0.250412 0.885807 -0.390691 110 166 217
3.99598 -2.87467 12.5342 0.61309 0.636585 -0.467847 104 160 213
4.04989 -2.88314 12.6298 0.731637 0.516947 -0.44438 104 160 213
4.19575 -2.89762 12.6068 0.138638 0.857297 -0.495803 104 159 212
5.49006 -3.39171 15.0859 0.0240398 0.585397 -0.81039 95 151 208
5.58618 -3.38793 15.0706 0.038148 0.463518 -0.885266 95 151 207
5.67868 -3.38217 15.051 0.0969311 0.428009 -0.898562 101 159 214
5.73248 -3.35163 15.1013 0.105319 0.603745 -0.79019 98 155 211
5.85425 -3.393 15.064 0.100808 0.587622 -0.802832 97 154 210
5.96232 -3.35142 15.0842 0.0898844 0.435031 -0.895918 98 155 211
6.27595 -3.44352 15.1789 0.679711 0.511093 -0.526097 96 152 209
6.90716 -3.33157 14.6111 0.65394 0.517548 -0.551821 99 156 212
6.96697 -3.33086 14.6237 0.663112 0.496087 -0.560518 99 156 212
7.16016 -3.346 14.7337 0.0788912 0.381302 -0.921078 94 150 207
7.30412 -3.3137 14.6625 0.0791633 0.485783 -0.870488 93 150 207
7.51491 -3.34138 14.6049 0.098381 0.155008 -0.983002 102 159 214
7.61683 -3.33907 14.6094 0.0916437 0.182987 -0.978835 102 159 214
7.83342 -3.33383 14.6915 0.0656075 0.522655 -0.850016 102 159 214
7.91827 -3.30416 14.4229 -0.189926 0.640115 -0.744433 101 156 211
7.95487 -3.2213 14.0231 -0.199078 0.670302 -0.714887 97 152 210
8.33317 -3.3636 14.645 -0.282683 0.455591 -0.844113 97 153 209
8.41657 -3.36615 14.6253 -0.287125 0.447861 -0.846747 98 153 209
8.49702 -3.3693 14.6082 -0.288332 0.453085 -0.843551 97 153 208
8.66048 -3.35243 14.4982 -0.27604 0.503839 -0.818504 106 162 216
8.80402 -2.58016 10.4749 -0.51134 0.639662 -0.573902 91 147 204
9.55596 -2.68194 10.9091 0.155611 0.21069 -0.965088 95 152 208
9.69037 -2.67221 10.899 0.533306 0.0463496 -0.844652 97 154 210
11.5404 -3.30164 13.7286 0.507474 -0.144764 -0.849419 93 149 206
10.3221 -2.76223 11.2818 0.290364 -0.421299 -0.859183 90 146 203
10.4079 -2.74572 11.2355 -0.154071 0.0478014 -0.986903 91 148 205
10.4911 -2.74969 11.2399 -0.194736 -0.146865 -0.969798 95 150 205
12.0072 -3.17155 13.2207 -0.3535 -0.174628 -0.91899 93 148 204
12.0703 -3.17957 13.2223 -0.33994 -0.215653 -0.915388 93 148 204
10.9082 -2.71859 10.9345 -0.169248 -0.280979 -0.944673 93 149 205
12.9511 -3.06717 12.5121 -0.347358 -0.238071 -0.907008 91 147 204
13.0047 -3.0775 12.5255 -0.323099 -0.292842 -0.899917 92 147 204
13.1452 -3.06325 12.4292 -0.376042 -0.1872 -0.907496 92 147 203
13.1739 -3.0827 12.4786 -0.382358 -0.178894 -0.906532 92 147 203
13.1739 -3.0827 12.4786 -0.382358 -0.178894 -0.906532 92 147 203
13.2556 -3.13136 12.5747 -0.368483 -0.227535 -0.901359 90 145 203
13.3937 -3.11126 12.4583 -0.287427 -0.312528 -0.905379 91 148 205
3.18496 -2.71184 12.3463 0.796964 0.436715 -0.417288 108 163 214
3.26032 -2.72224 12.3537 0.531149 0.218115 -0.818722 108 163 214
3.30909 -2.77079 12.4219 0.867202 0.0478071 -0.495657 113 169 218
3.49383 -2.56137 11.3849 0.0313298 0.476319 -0.878714 108 164 215
3.57961 -2.55332 11.3443 -0.412936 0.216856 -0.884566 99 155 210
4.65834 -2.9443 13.1011 0.727151 0.495218 -0.475406 106 163 216
4.61365 -2.92068 12.9997 0.718191 0.344125 -0.604798 107 164 216
4.72316 -2.96129 13.1888 0.685307 0.510291 -0.519574 107 164 216
4.81226 -2.97519 13.3759 0.647078 0.613227 -0.453038 107 163 216
5.43715 -3.33832 15.2459 -0.44238 0.33603 -0.831495 96 152 208
5.53655 -3.31433 15.1187 0.0388319 0.457199 -0.888517 99 156 211
5.64758 -3.30361 15.1211 0.103042 0.557829 -0.823535 103 160 215
5.76058 -3.32769 15.167 0.102906 0.602771 -0.791251 99 155 211
5.82953 -3.36023 15.2312 0.0892905 0.513121 -0.85366 98 155 211
6.10754 -3.34286 15.0651 0.104304 0.177083 -0.978653 101 159 214
6.35287 -3.35809 15.3839 -0.162861 0.645784 -0.745949 98 155 210
6.84226 -3.24917 14.6176 0.665558 0.496424 -0.557312 100 158 213
7.34474 -3.23624 14.689 0.0805624 0.333913 -0.939155 101 160 215
7.43126 -3.23771 14.7042 0.0904023 0.635683 -0.766638 102 160 215
7.45515 -3.28481 14.6668 0.0785058 0.537221 -0.83978 101 159 215
7.53079 -3.24872 14.7037 0.0725826 0.460627 -0.884621 104 161 215
7.79014 -3.26333 14.5764 -0.180901 0.652912 -0.735514 100 157 212
8.1073 -3.27411 14.6101 0.0637483 0.523228 -0.849805 105 163 216
8.39195 -3.28727 14.6672 -0.284475 0.452756 -0.845036 99 155 210
8.44145 -3.29762 14.685 -0.268574 0.455054 -0.848996 103 160 213
8.5812 -3.28718 14.6011 -0.288586 0.456032 -0.841875 107 164 217
8.78382 -2.55831 10.6936 -0.148874 0.438072 -0.886527 99 154 210
8.90572 -2.55969 10.7737 -0.145753 0.487498 -0.860873 99 154 208
8.96482 -2.59843 10.7943 -0.147638 0.620997 -0.769783 92 148 205
9.22272 -2.51749 10.258 -0.0744652 0.659658 -0.747868 96 153 208
9.26629 -2.50136 10.3749 -0.103879 0.604796 -0.789577 97 153 209
9.6761 -2.65772 10.9646 0.458137 -0.312092 -0.832292 96 152 208
