ply
format ascii 1.0
element vertex 727
property float x
property float y
property float z
property float nx
property float ny
property float nz
property uchar diffuse_red
property uchar diffuse_green
property uchar diffuse_blue
end_header
9.11234 2.64434 2.90417 -0.756904 -0.603831 -0.249967 122 123 122
1.16656 2.66583 7.267 -0.288555 -0.875916 -0.386661 126 126 129
2.63874 2.67098 6.32774 -0.706748 -0.541831 -0.454892 129 129 133
2.7199 2.65919 6.25815 -0.0326416 -0.686416 -0.726477 125 125 128
2.729 2.66866 6.27809 -0.632857 -0.442508 -0.635357 125 125 128
2.79269 2.67664 6.3727 -0.701288 -0.388286 -0.597854 129 128 132
2.83648 2.66026 6.19969 -0.356244 -0.91728 -0.178011 125 124 128
2.85655 2.64646 6.13324 -0.113858 -0.829121 -0.547352 129 128 131
2.89964 2.65398 6.10742 -0.284762 -0.720863 -0.631877 95 94 100
3.17841 2.65819 5.99471 -0.157893 -0.601575 -0.783056 119 118 121
4.49936 2.59711 5.04259 -0.853761 -0.454719 -0.25362 142 146 153
4.54215 2.59862 5.03168 -0.504764 -0.79059 -0.346672 131 133 140
4.5696 2.59926 4.99706 -0.4231 -0.900873 -0.0970287 138 140 147
4.54297 2.60693 4.94994 -0.571098 -0.812355 -0.11801 162 168 177
4.64295 2.60884 5.01114 -0.34829 -0.916242 -0.197976 125 125 130
4.64295 2.60884 5.01114 -0.34829 -0.916242 -0.197976 125 125 130
4.6256 2.60051 4.87185 -0.418803 -0.692159 -0.58781 137 143 155
5.6251 2.65991 4.76241 -0.431466 -0.883698 -0.181425 158 157 157
5.61734 2.66341 4.67775 -0.379804 -0.906219 -0.185786 166 166 165
5.65139 2.638 4.59963 -0.474936 -0.863482 -0.169808 147 146 148
5.71009 2.6374 4.62813 -0.313862 -0.929058 -0.19581 132 131 133
6.27584 2.66571 4.39612 -0.246208 -0.938792 -0.240937 80 80 83
6.40634 2.65551 4.27896 -0.565579 -0.819024 -0.096544 129 129 130
6.41092 2.63348 4.22068 -0.6272 -0.777106 0.0522148 124 123 125
6.40099 2.63125 4.10762 -0.753889 -0.65405 -0.0622051 123 122 126
8.1292 2.63082 3.19075 -0.620855 -0.296608 -0.725647 121 121 122
8.647 2.72286 3.30018 -0.710825 -0.65516 0.255915 113 113 113
9.03351 2.69584 3.01658 -0.619574 -0.765379 0.174132 112 111 110
9.08439 2.66896 2.9609 -0.508893 -0.860812 -0.00552291 113 114 112
9.04009 2.68155 2.89637 -0.356623 -0.932051 -0.0640352 103 103 101
2.65091 2.68434 6.25526 -0.851803 -0.267601 -0.450358 121 121 125
2.85749 2.66926 6.08461 -0.118985 -0.876438 -0.466582 132 131 134
2.89652 2.67327 6.0583 -0.256077 -0.85696 -0.447264 125 125 128
2.93557 2.66624 6.01382 -0.308279 -0.932552 -0.187915 103 103 109
2.97853 2.66253 5.9832 -0.368137 -0.879655 -0.301136 105 105 109
3.14051 2.69343 5.98266 0.0658503 -0.849288 -0.523806 128 128 131
3.21194 2.67112 5.97908 -0.256183 -0.519292 -0.815295 125 124 127
4.04284 2.67556 5.39078 -0.270495 -0.923697 -0.271322 116 116 120
4.53771 2.62192 4.93926 -0.448308 -0.870039 -0.205065 160 169 178
4.66436 2.61471 4.8838 -0.195063 -0.798692 -0.569246 137 143 153
5.29976 2.68725 4.75198 -0.379326 -0.917239 -0.121591 129 129 133
5.35776 2.68873 4.76647 -0.400206 -0.90463 -0.14656 131 131 134
5.40449 2.67438 4.73704 -0.41038 -0.8947 -0.176351 126 126 130
5.56715 2.70475 4.80415 -0.516549 -0.846166 -0.131071 125 125 129
5.58618 2.68832 4.75385 -0.636271 -0.766507 -0.0873256 129 128 132
5.57995 2.67908 4.72982 -0.48648 -0.864194 -0.128477 129 129 132
5.57153 2.70487 4.69483 -0.780147 -0.603846 -0.163526 129 129 132
5.57207 2.67407 4.59998 -0.309504 -0.939876 -0.144361 135 136 138
5.60876 2.66627 4.58891 -0.424096 -0.888493 -0.175278 165 164 164
5.59899 2.66703 4.49786 -0.535645 -0.829496 -0.158177 172 171 170
5.61445 2.64816 4.41508 -0.603992 -0.782782 -0.14982 155 154 156
5.61526 2.64899 4.41802 -0.594819 -0.789666 -0.150391 155 154 156
5.76895 2.67309 4.4908 -0.48474 -0.861014 -0.153891 130 130 133
5.81777 2.676 4.49238 -0.254566 -0.946838 -0.196709 128 128 130
5.63492 2.63435 4.35914 -0.518322 -0.841024 -0.154987 142 141 144
5.6729 2.63829 4.35567 -0.361459 -0.915552 -0.176385 133 133 135
6.11938 2.67226 4.2343 -0.536772 -0.835918 -0.114529 122 122 122
6.37206 2.66513 4.19564 -0.362497 -0.920814 -0.143867 113 114 116
6.37774 2.65202 4.0372 -0.601651 -0.794895 -0.07847 127 127 129
6.40626 2.6428 4.00195 -0.343642 -0.928245 -0.14238 126 127 129
6.46228 2.6319 3.97591 -0.445597 -0.881501 -0.156205 126 126 129
8.06824 2.69236 3.22809 -0.910562 -0.225106 -0.346704 83 82 84
8.07572 2.66925 3.18625 -0.828041 -0.437815 -0.350238 98 100 100
8.60085 2.70112 2.97372 -0.384416 -0.922868 -0.0232373 93 93 92
9.07454 2.71385 2.78871 -0.656765 -0.753433 -0.0315912 115 116 116
9.08583 2.70919 2.81312 -0.822307 -0.547931 -0.153563 117 117 117
1.08334 2.67069 6.98602 0.0956079 -0.901537 -0.422008 130 130 132
1.21171 2.6214 6.61239 -0.288048 -0.448338 -0.846181 133 134 136
1.42256 2.62898 6.55657 -0.29088 -0.894378 -0.339819 113 116 124
1.63597 2.66542 6.50799 -0.741711 -0.363815 -0.563475 135 134 138
2.2866 2.66667 6.19824 0.244268 -0.86176 -0.444637 140 139 143
2.48308 2.6791 6.23707 -0.276707 -0.870433 -0.407161 124 124 129
2.86583 2.70646 6.06792 -0.487637 -0.841033 -0.234252 131 130 134
2.89474 2.68898 6.00246 -0.17732 -0.933389 -0.311998 129 129 132
2.93706 2.68514 5.96457 -0.332523 -0.882224 -0.33333 129 129 133
2.97587 2.6779 5.93062 -0.221731 -0.936767 -0.270746 130 129 132
4.48931 2.64721 4.92177 -0.652297 -0.723992 -0.224376 68 69 73
4.51593 2.64573 4.89199 -0.539313 -0.804696 -0.248206 93 98 104
4.54162 2.64152 4.85371 -0.274188 -0.819302 -0.503552 109 115 124
4.66627 2.64744 4.85857 -0.0783042 -0.650679 -0.755305 93 96 104
4.6256 2.65893 4.82715 0.0976622 -0.711859 -0.695499 101 101 105
4.70573 2.66599 4.8536 -0.149362 -0.869568 -0.470683 114 114 118
5.32081 2.69022 4.58205 -0.405964 -0.894475 -0.187368 134 134 136
5.55048 2.71325 4.61429 -0.714927 -0.545167 -0.437805 135 135 138
5.54852 2.68868 4.4739 -0.343822 -0.92107 -0.182801 129 129 132
5.57222 2.67822 4.42114 -0.590915 -0.792496 -0.150894 140 140 141
5.59406 2.66429 4.35595 -0.443244 -0.881416 -0.163221 167 166 167
5.63212 2.62046 4.17602 -0.669838 -0.736114 -0.0972234 131 131 134
5.92551 2.68704 4.31281 -0.33134 -0.928548 -0.167368 115 115 117
5.91871 2.69042 4.23206 -0.308058 -0.919027 -0.245948 126 126 128
6.09193 2.68423 4.16658 -0.476592 -0.87055 -0.122484 119 119 119
6.12332 2.68047 4.14216 -0.298162 -0.940274 -0.164265 124 123 124
6.34754 2.6545 3.91784 -0.438144 -0.896909 -0.0598708 134 133 135
6.37201 2.64214 3.86931 -0.549728 -0.831426 -0.0808116 136 136 138
6.37201 2.64214 3.86931 -0.549728 -0.831426 -0.0808116 136 136 138
6.37201 2.64214 3.86931 -0.549728 -0.831426 -0.0808116 136 136 138
6.32677 2.63783 3.75855 -0.542584 -0.824277 -0.16177 133 132 134
6.36081 2.64043 3.73234 -0.730869 -0.587562 -0.347278 131 131 133
7.12824 2.63008 3.39114 -0.774241 -0.598638 -0.205385 126 127 128
7.16172 2.65128 3.33988 -0.704111 -0.634572 -0.318662 128 128 130
8.04009 2.67017 3.01883 -0.436311 -0.848615 -0.29914 110 110 111
8.42115 2.67979 2.91535 -0.380892 -0.903975 -0.194294 109 109 109
8.92401 2.69285 2.66029 -0.35468 -0.929741 -0.0989164 115 116 115
8.89989 2.67593 2.65222 -0.819862 -0.513732 -0.252795 116 117 116
8.89989 2.67593 2.65222 -0.819862 -0.513732 -0.252795 116 117 116
0.601668 2.64306 6.90269 0.224953 -0.903573 -0.364627 123 124 126
1.12489 2.65188 6.58762 -0.0255745 -0.921835 -0.386737 142 142 144
1.17475 2.64726 6.62091 0.0717936 -0.92541 -0.372106 139 139 141
1.21341 2.64813 6.5757 -0.0153335 -0.886214 -0.463023 110 111 116
1.31424 2.64697 6.58455 -0.0769124 -0.935276 -0.345462 76 83 97
1.36083 2.66322 6.49043 -0.103853 -0.931525 -0.348535 96 100 107
1.42536 2.64675 6.4983 -0.167106 -0.939955 -0.29759 90 95 105
2.93908 2.6688 5.68895 -0.439619 -0.774916 -0.454137 127 126 130
4.31561 2.71379 5.17864 -0.481988 -0.771389 -0.415508 127 127 129
4.45737 2.6887 4.93779 -0.85933 -0.41086 -0.304542 123 123 126
4.47689 2.67392 4.89709 -0.828383 -0.469962 -0.304823 96 96 101
4.50106 2.66526 4.84513 -0.683561 -0.6558 -0.320422 63 64 72
4.54247 2.668 4.81936 -0.1545 -0.66728 -0.728606 92 92 96
4.52516 2.67988 4.81482 -0.587288 -0.729587 -0.350422 111 112 115
4.55187 2.68012 4.78967 -0.319871 -0.903221 -0.286136 117 117 119
4.602 2.67818 4.76649 -0.274356 -0.932894 -0.233316 126 126 128
5.34886 2.69973 4.41608 0.140456 -0.558619 -0.817445 127 127 130
5.55409 2.69219 4.34133 -0.543087 -0.826081 -0.150485 124 123 125
5.59449 2.67464 4.30402 -0.341793 -0.923137 -0.176053 164 163 163
5.582 2.68294 4.24006 -0.413505 -0.896208 -0.160705 154 152 152
5.57828 2.67564 4.23111 -0.504332 -0.857409 -0.102463 154 152 153
5.58106 2.64849 4.0263 -0.625886 -0.7687 -0.131784 137 137 139
5.57316 2.64445 4.00727 -0.747256 -0.657362 -0.0973805 137 137 140
5.58948 2.62797 3.96129 -0.712659 -0.689724 -0.128054 132 131 135
5.62152 2.63021 3.96355 -0.708974 -0.694048 -0.12511 127 127 129
6.11801 2.68702 4.06514 -0.456293 -0.881687 -0.1201 112 111 112
6.11242 2.69004 3.99392 -0.384144 -0.9136 -0.1333 95 94 95
6.31939 2.66289 3.84778 -0.420385 -0.900398 -0.112076 126 125 126
6.31939 2.66289 3.84778 -0.420385 -0.900398 -0.112076 126 125 126
6.31939 2.66289 3.84778 -0.420385 -0.900398 -0.112076 126 125 126
6.26446 2.68081 3.79939 -0.442381 -0.890823 -0.103605 92 91 93
6.26189 2.67591 3.80245 -0.392219 -0.912268 -0.118035 96 94 96
6.31258 2.66183 3.71849 -0.511829 -0.814284 -0.273811 117 117 118
7.06035 2.65995 3.29135 -0.334734 -0.878859 -0.339941 115 116 116
7.10346 2.66542 3.27913 -0.569452 -0.582419 -0.580096 118 119 119
7.14577 2.6762 3.27678 -0.74087 -0.364192 -0.564336 124 125 125
8.02192 2.68004 2.96389 -0.273672 -0.930726 -0.242597 100 99 100
8.31051 2.69354 2.85319 -0.314898 -0.93023 -0.188447 101 101 101
8.15224 2.66525 2.7254 -0.231972 -0.889511 -0.393649 89 90 90
8.41062 2.68787 2.71703 -0.212243 -0.848554 -0.484675 100 100 100
1.17227 2.66342 6.56703 -0.0795657 -0.934468 -0.347042 136 135 138
1.30996 2.67167 6.55128 -0.221586 -0.89467 -0.387898 100 103 108
1.29685 2.68141 6.47856 -0.270851 -0.911843 -0.308515 130 130 132
1.31541 2.68 6.47207 -0.248601 -0.935682 -0.250394 133 133 136
2.95856 2.67846 5.60737 -0.725378 -0.59276 -0.349946 132 132 136
2.98319 2.66991 5.57155 -0.735077 -0.579074 -0.352612 124 124 128
4.4366 2.72507 4.93316 -0.821345 -0.496498 -0.28086 122 121 124
4.45658 2.71241 4.90233 -0.854283 -0.39389 -0.339192 121 120 124
4.47811 2.72066 4.83128 -0.841323 -0.380287 -0.384131 121 121 124
4.47244 2.69393 4.85539 -0.822014 -0.482414 -0.302606 116 117 120
4.49609 2.70186 4.78253 -0.736068 -0.571536 -0.3627 121 121 124
5.52905 2.70397 4.27053 -0.424274 -0.891206 -0.160446 128 128 130
5.54566 2.71396 4.23348 -0.684039 -0.716265 -0.13804 128 127 130
5.54655 2.70966 4.23055 -0.729335 -0.675974 -0.105499 128 128 130
5.55578 2.68968 4.18175 -0.40855 -0.912672 0.010823 136 136 138
5.55276 2.68654 4.14211 -0.826943 -0.542639 -0.147337 142 141 142
5.55845 2.68595 4.16205 -0.728001 -0.671774 -0.136877 147 146 147
5.56555 2.66652 4.08882 -0.654054 -0.744576 -0.133494 155 154 155
5.54438 2.67919 4.02355 -0.631646 -0.76407 -0.131224 154 154 155
5.55861 2.65996 3.95546 -0.753728 -0.644224 -0.129885 144 143 147
5.57928 2.64653 3.90969 -0.583492 -0.807794 -0.0836952 139 139 143
5.61182 2.6475 3.90073 -0.409317 -0.89065 -0.197994 136 136 139
5.80276 2.68792 4.01839 -0.337324 -0.928405 -0.155811 124 124 127
5.99076 2.69851 3.98794 -0.401294 -0.906343 -0.132309 125 125 127
6.03226 2.68844 3.819 -0.32885 -0.933505 -0.142923 123 123 126
6.16161 2.7022 3.84346 -0.348594 -0.872157 -0.343255 120 120 122
6.19442 2.6972 3.7439 -0.534579 -0.841192 -0.0813689 120 120 123
6.22647 2.69317 3.71609 -0.453097 -0.853317 -0.257978 111 110 114
6.26888 2.68353 3.69137 -0.412409 -0.846216 -0.337397 99 98 99
6.31642 2.68388 3.68132 -0.701259 -0.623773 -0.345173 109 109 110
6.34496 2.67891 3.65392 -0.796131 -0.595226 -0.109001 125 126 128
7.01375 2.68158 3.33651 -0.425378 -0.903401 -0.0540394 94 92 95
7.0308 2.682 3.29145 -0.188813 -0.566923 -0.80184 81 80 83
6.98447 2.69165 3.26175 -0.383458 -0.921154 -0.0665953 103 102 104
7.05849 2.6903 3.26568 -0.403922 -0.462321 -0.789371 100 100 101
7.11341 2.70051 3.25095 -0.803836 -0.328884 -0.495665 118 117 119
8.05975 2.70796 2.80596 -0.524541 -0.848331 0.0720462 121 121 122
8.09276 2.69348 2.71238 -0.815983 -0.472651 -0.332826 88 89 91
8.07849 2.66526 2.65937 -0.550355 -0.752995 -0.360704 81 82 84
8.04763 2.68528 2.61247 -0.661102 -0.726497 -0.187474 91 92 94
8.08697 2.6568 2.61743 -0.76234 -0.575901 -0.295255 79 80 82
8.61651 2.7103 2.45885 -0.980935 -0.191579 -0.0326212 70 72 73
8.70253 2.71136 2.3727 -0.514135 -0.41456 -0.75087 114 115 113
8.65775 2.70405 2.38138 -0.676663 -0.701984 0.222139 101 103 101
1.59979 2.66631 6.10101 -0.0377058 -0.936664 -0.348193 142 142 144
4.43674 2.74303 4.88353 -0.869983 -0.371001 -0.32479 122 122 125
4.45719 2.73168 4.85631 -0.857466 -0.352441 -0.374885 124 124 127
4.48048 2.74183 4.79293 -0.860721 -0.414599 -0.29541 121 121 124
5.0302 2.68223 4.21205 -0.228731 -0.917557 -0.325224 133 133 137
5.51818 2.71888 4.14089 -0.738778 -0.659733 -0.137694 130 130 133
5.54198 2.70479 4.09204 -0.806938 -0.573496 -0.141256 134 135 137
5.49716 2.69845 3.98668 -0.391702 -0.907148 -0.153792 132 132 135
5.52294 2.69171 3.95963 -0.615903 -0.777202 -0.12892 143 142 145
5.54085 2.6761 3.90561 -0.63858 -0.765032 -0.0833148 162 162 164
5.55835 2.65892 3.84542 -0.557078 -0.826512 -0.0808815 135 135 138
6.14258 2.702 3.74634 -0.461331 -0.869784 -0.175068 122 122 125
6.18264 2.71629 3.68748 -0.549903 -0.775792 -0.309442 121 122 124
6.32181 2.71731 3.6694 -0.672505 -0.573666 -0.467593 121 121 122
6.76353 2.68262 3.23589 -0.324728 -0.940908 -0.0961474 127 127 129
6.91443 2.70028 3.19694 -0.383734 -0.921283 -0.063127 126 126 127
8.03159 2.72465 2.61935 -0.868343 -0.483759 0.10935 123 124 125
8.599 2.71576 2.39554 -0.404221 -0.908941 0.102134 66 67 70
8.78744 2.72873 2.25317 -0.84408 -0.436115 0.31198 125 126 126
0.72451 2.66086 6.48405 -0.0369683 -0.953622 -0.298727 123 124 127
1.33951 2.66503 6.19514 -0.409926 -0.692378 -0.59378 152 151 154
1.42144 2.66773 6.12999 -0.208801 -0.931773 -0.296987 147 146 149
1.46183 2.65299 5.94428 0.00828596 -0.9441 -0.329554 144 144 147
2.27161 2.63209 5.40774 0.152621 -0.63766 -0.755048 120 120 123
4.45972 2.75043 4.81025 -0.875323 -0.36999 -0.311315 127 127 130
5.50428 2.70648 3.90705 -0.622848 -0.772157 -0.125831 136 135 139
5.5211 2.68905 3.84901 -0.59613 -0.793196 -0.124377 153 152 154
5.54166 2.67504 3.79474 -0.345894 -0.933107 -0.0983283 148 148 150
5.51984 2.68689 3.73742 -0.611522 -0.782417 -0.117746 155 154 156
5.739 2.70127 3.69295 -0.543567 -0.832916 -0.103857 123 122 126
5.72622 2.67758 3.63356 -0.342221 -0.935937 -0.0831087 119 118 122
8.02385 2.70576 2.48844 -0.394392 -0.918819 0.0150728 104 104 106
7.99874 2.72104 2.47742 -0.856896 -0.508645 0.0837256 115 116 116
8.01331 2.69866 2.41025 -0.569295 -0.821727 0.0258445 90 91 93
8.03014 2.69907 2.3323 -0.882512 -0.453756 0.123608 70 71 75
8.56625 2.69861 2.07189 -0.664354 -0.707097 0.242171 131 132 131
0.606141 2.66825 6.41298 -0.397668 -0.871499 -0.286967 135 135 139
1.05903 2.6765 6.22645 0.0349633 -0.951599 -0.305347 134 135 137
2.29928 2.6656 5.39778 0.327531 -0.475154 -0.816671 116 115 118
4.95916 2.6925 3.98537 -0.426409 -0.904488 -0.00876743 126 126 129
5.49879 2.69872 3.78614 -0.551131 -0.825074 -0.124526 134 132 136
5.48041 2.71278 3.72939 -0.575702 -0.808886 -0.119464 141 138 141
5.50148 2.70148 3.68741 -0.677587 -0.726589 -0.113775 138 135 137
5.52122 2.68919 3.6481 -0.630567 -0.768053 -0.111717 144 142 144
5.69787 2.70199 3.59024 -0.680337 -0.727305 -0.0903855 133 131 134
5.71897 2.69078 3.55521 -0.412497 -0.903157 -0.118971 121 120 123
5.76683 2.68248 3.54412 -0.412239 -0.884884 -0.216885 114 114 116
6.87021 2.69696 2.85316 -0.335701 -0.929417 -0.153264 95 96 97
7.01318 2.71079 2.86791 -0.301988 -0.93444 -0.188745 121 122 121
7.97114 2.73492 2.41676 -0.932804 -0.343326 0.10956 112 113 113
7.99819 2.725 2.38488 -0.930501 -0.287074 0.227498 108 110 109
7.99859 2.72522 2.38545 -0.954915 -0.213431 0.206361 108 110 109
7.99819 2.725 2.38488 -0.930501 -0.287074 0.227498 108 110 109
7.99859 2.72522 2.38545 -0.954915 -0.213431 0.206361 108 110 109
7.98312 2.71087 2.35353 -0.651981 -0.738157 0.173335 103 104 104
0.710955 2.66634 6.22793 -0.0962809 -0.933761 -0.344705 127 127 130
1.05241 2.68092 6.14999 -0.0371554 -0.913498 -0.405144 131 131 134
1.31417 2.64627 5.82623 0.384462 -0.775786 -0.500344 127 127 130
1.37427 2.64341 5.73011 0.275965 -0.668978 -0.690153 129 130 134
1.58397 2.66632 5.72538 0.271513 -0.865731 -0.420464 117 117 119
3.71603 2.70642 4.71652 -0.146643 -0.871034 -0.468823 129 129 134
3.62191 2.70017 4.60826 -0.224322 -0.940337 -0.255823 130 130 134
5.46479 2.72798 3.67576 -0.598634 -0.792761 -0.11475 128 124 128
5.4888 2.72161 3.65137 -0.801358 -0.585783 -0.121181 131 128 131
5.49766 2.69596 3.57938 -0.517213 -0.84791 -0.116362 141 138 141
5.67753 2.71323 3.53216 -0.569053 -0.816866 -0.0943856 130 128 131
7.97329 2.73696 2.32259 -0.934046 -0.325173 0.147716 115 117 116
7.90569 2.72471 2.29023 -0.972559 -0.231221 -0.0257837 114 115 116
7.90554 2.72462 2.29005 -0.972002 -0.233294 -0.0280437 114 115 116
7.92028 2.69715 2.12044 -0.38662 -0.916648 0.101395 55 57 65
1.0517 2.6962 6.09366 -0.312158 -0.441372 -0.841277 128 128 132
1.24172 2.67737 5.85681 -0.106257 -0.957756 -0.267231 127 127 131
1.34833 2.64143 5.67269 -0.329253 -0.311895 -0.891243 128 128 132
1.38344 2.66429 5.66665 0.426044 -0.556738 -0.713113 111 112 116
3.4546 2.69398 4.56175 -0.15321 -0.954896 -0.254362 118 119 122
3.58103 2.70164 4.54617 -0.121958 -0.948897 -0.29107 127 127 130
5.47505 2.7067 3.52253 -0.468578 -0.872963 -0.135533 130 126 130
5.53628 2.68818 3.31715 -0.281982 -0.947454 -0.151051 142 137 140
7.86368 2.71678 2.14176 -0.416676 -0.901115 0.119887 105 105 107
7.85544 2.70806 2.07034 -0.410229 -0.910259 0.0560468 72 72 76
7.87472 2.71569 2.02985 -0.416712 -0.906679 0.0654545 56 57 63
7.83106 2.71067 2.00207 -0.583735 -0.794721 0.166349 61 61 67
7.91412 2.71951 2.01666 -0.40701 -0.850514 -0.33312 55 56 63
1.78725 2.67503 5.32684 0.0467907 -0.941099 -0.33488 131 131 134
2.14363 2.7002 5.27899 -0.423504 -0.87246 -0.243841 134 132 136
5.53048 2.6891 3.24265 -0.314305 -0.940601 -0.128384 134 125 128
7.81582 2.73772 2.11082 -0.470591 -0.877264 0.0946156 107 107 109
7.84903 2.75112 2.08635 -0.473194 -0.876251 0.0909444 95 95 97
7.76823 2.73902 2.01884 -0.530899 -0.836318 0.136814 111 112 112
7.86375 2.73251 1.9602 -0.759224 -0.64369 0.0961386 65 67 71
7.86375 2.73251 1.9602 -0.759224 -0.64369 0.0961386 65 67 71
7.7528 2.69295 1.89551 -0.760025 -0.649887 -0.00290367 68 70 74
7.92406 2.73693 1.96498 -0.649013 -0.760617 -0.0155856 59 61 66
0.740435 2.68519 5.90023 0.0706802 -0.952992 -0.294635 126 126 130
1.47129 2.68784 5.48762 -0.149411 -0.932883 -0.327729 124 124 128
5.96058 2.7227 2.94871 -0.321328 -0.906924 -0.272466 122 121 123
7.71627 2.75051 1.95442 -0.976127 -0.205409 0.0705963 112 113 113
7.72816 2.72871 1.9171 -0.918514 -0.380152 0.108703 101 101 102
7.73675 2.70133 1.7812 -0.379285 -0.916647 0.126096 68 70 74
1.60723 2.69623 5.31051 -0.288445 -0.932015 -0.219428 142 142 145
2.01726 2.69312 5.03018 -0.071407 -0.965489 -0.250465 140 140 144
5.04121 2.68274 3.17851 -0.329359 -0.942065 -0.0635282 123 123 125
5.14363 2.70176 3.24331 -0.306828 -0.950507 -0.0489257 120 117 121
5.15931 2.71446 3.20168 -0.294606 -0.953343 -0.0659144 116 114 118
5.34543 2.70437 3.04239 -0.598748 -0.77835 -0.18887 168 118 114
5.37128 2.70748 3.02368 -0.348121 -0.844367 -0.407254 137 130 133
5.83592 2.70667 2.86621 -0.190945 -0.941175 -0.2788 119 118 120
7.68206 2.71856 1.80137 -0.38605 -0.920412 0.0616995 88 87 88
1.43655 2.69469 5.29579 -0.189907 -0.916316 -0.352562 126 126 131
5.06535 2.70056 3.14302 -0.366998 -0.929281 0.0418247 117 116 119
5.33615 2.72444 3.00522 -0.312121 -0.837655 -0.448235 129 124 127
5.88915 2.71923 2.67755 -0.701296 -0.675305 -0.228358 105 105 108
5.8919 2.72198 2.63904 -0.408912 -0.905608 -0.112542 107 108 111
0.918655 2.69359 5.54858 -0.0129678 -0.852224 -0.523016 134 136 139
2.10594 2.71382 4.84529 -0.269233 -0.855233 -0.44282 130 130 134
5.21374 2.73619 3.02809 -0.429515 -0.895306 -0.118083 123 121 125
0.677129 2.69063 5.5226 -0.0446458 -0.948483 -0.313665 136 137 141
5.48394 2.70008 2.63387 -0.315111 -0.944742 -0.0903805 129 128 130
5.47903 2.69867 2.57029 -0.489931 -0.868106 -0.0797551 137 136 138
5.50871 2.67575 2.53359 -0.550619 -0.827292 -0.111388 109 108 110
5.93362 2.73016 2.40998 -0.515641 -0.765837 -0.384197 118 118 120
5.95478 2.72911 2.37817 -0.707056 -0.682481 -0.185179 123 123 124
1.66908 2.70185 4.84791 -0.44587 -0.875751 -0.185097 146 146 149
5.40435 2.72699 2.67966 -0.335278 -0.938401 -0.0836219 114 113 117
5.47689 2.69989 2.51921 -0.493013 -0.868618 -0.0494112 137 136 138
5.47769 2.70356 2.47606 -0.288058 -0.953897 -0.0842755 139 137 140
5.52237 2.69491 2.4531 -0.295207 -0.951989 -0.0810557 105 103 106
5.91336 2.73739 2.34877 -0.51867 -0.854971 0.00239873 104 103 105
5.94342 2.73227 2.32392 -0.592507 -0.805554 -0.00429469 115 116 118
0.993418 2.70168 5.19085 -0.275357 -0.929883 -0.243917 117 118 122
1.07644 2.70454 5.09666 -0.168356 -0.953554 -0.249782 125 126 131
5.43855 2.71892 2.43551 -0.295962 -0.951988 -0.0782697 111 109 110
0.37098 2.70882 5.5176 -0.212876 -0.948066 -0.236335 142 142 146
0.762467 2.69052 5.13995 0.372153 -0.72102 -0.584493 136 135 140
1.5087 2.71053 4.80934 -0.335939 -0.913241 -0.230512 129 129 132
1.67985 2.72364 4.73836 -0.447955 -0.821629 -0.352508 138 138 141
2.14568 2.72282 4.42169 -0.299872 -0.854813 -0.423523 126 126 130
3.53643 2.7151 3.48732 -0.244856 -0.926754 -0.284906 125 125 128
3.57485 2.71465 3.46156 -0.248738 -0.865034 -0.435713 110 109 112
0.310704 2.71896 5.47095 0.0273545 -0.965891 -0.257499 150 150 154
0.341415 2.71924 5.46332 -0.707342 -0.340392 -0.619516 137 137 141
0.371041 2.71564 5.44771 -0.623855 -0.430397 -0.652352 144 144 146
0.416183 2.71203 5.39422 -0.0258644 -0.968083 -0.249292 138 138 140
0.45614 2.70455 5.34736 -0.236928 -0.945058 -0.225236 134 135 138
0.498903 2.70581 5.33067 -0.208329 -0.951733 -0.225394 132 132 135
0.631088 2.70888 5.19235 0.038807 -0.965998 -0.255619 135 134 139
0.790083 2.70283 5.11562 0.408021 -0.63365 -0.657273 122 122 126
3.5364 2.73 3.45397 -0.306279 -0.878616 -0.366369 125 125 127
3.57485 2.72573 3.41866 -0.123452 -0.961421 -0.245823 122 122 124
0.312616 2.71629 5.37989 -0.282825 -0.931825 -0.227404 137 137 139
0.306694 2.72222 5.38797 0.0427246 -0.965809 -0.25571 134 134 136
0.342676 2.71568 5.37063 -0.707862 -0.333818 -0.622492 129 129 132
0.338532 2.69516 5.24416 -0.76127 -0.225533 -0.60795 135 136 139
0.371301 2.71009 5.3507 -0.0328508 -0.963393 -0.266073 128 128 132
0.36351 2.70637 5.33957 -0.00599359 -0.920858 -0.389853 130 130 134
0.412922 2.71531 5.32749 0.0530759 -0.964677 -0.258032 129 128 133
0.45254 2.71132 5.28211 0.133445 -0.952795 -0.272716 130 130 134
0.491942 2.71217 5.24004 0.128377 -0.953911 -0.271244 149 149 150
0.532042 2.71672 5.20516 -0.0855185 -0.968932 -0.232073 144 144 149
0.589502 2.71478 5.17071 -0.176536 -0.959863 -0.21794 142 142 144
0.62953 2.71597 5.13636 0.0553557 -0.965197 -0.255598 145 145 149
0.720839 2.71339 5.08981 0.347905 -0.856306 -0.38171 134 134 138
0.720839 2.71339 5.08981 0.347905 -0.856306 -0.38171 134 134 138
3.99442 2.71835 3.05696 -0.0361015 -0.934771 -0.353411 132 132 135
4.02465 2.72141 3.03147 -0.118816 -0.964399 -0.236259 156 157 160
5.42414 2.73198 2.17755 -0.232471 -0.963162 -0.135188 108 108 109
5.47426 2.69802 1.97883 -0.427217 -0.880311 -0.206247 106 105 108
5.49436 2.68982 1.95023 -0.576859 -0.8168 0.0084573 101 101 103
0.2672 2.71872 5.32654 -0.284659 -0.931485 -0.226507 124 124 127
0.308939 2.71583 5.30609 -0.0970957 -0.966776 -0.236465 121 121 125
0.313029 2.70399 5.2517 -0.82142 -0.227058 -0.523177 129 129 133
0.587267 2.71745 5.10835 0.0344587 -0.967941 -0.248803 143 143 146
0.626582 2.71819 5.07277 -0.0134913 -0.971063 -0.238443 125 124 129
0.6691 2.71779 5.10251 0.0480318 -0.932802 -0.357175 135 135 140
0.666146 2.71852 5.04157 -0.0729769 -0.971319 -0.226305 129 128 132
0.706643 2.71926 5.01516 -0.0200213 -0.971692 -0.2354 132 131 135
0.74821 2.71556 5.04102 0.0114351 -0.969477 -0.244916 130 130 134
0.745668 2.71945 4.98218 -0.170045 -0.963574 -0.206423 124 123 127
0.786746 2.7145 5.00586 -0.00707451 -0.970783 -0.239857 127 126 131
0.78583 2.71862 4.95959 -0.106258 -0.970254 -0.217525 139 138 142
0.825385 2.71368 4.97258 0.0360057 -0.96762 -0.24983 128 127 131
0.86542 2.71904 4.94693 -0.0120576 -0.971496 -0.236751 125 125 129
0.903369 2.71914 4.9143 -0.0847865 -0.972184 -0.218336 123 124 129
1.81828 2.71518 4.3203 -0.0451749 -0.971482 -0.232769 125 125 129
1.85921 2.71886 4.29737 -0.188427 -0.950731 -0.246183 134 134 137
1.90966 2.72804 4.33218 -0.276468 -0.947854 -0.158552 141 142 145
2.59534 2.73166 3.92878 -0.268601 -0.91199 -0.310046 126 125 129
3.95393 2.72566 3.03509 -0.0625071 -0.948722 -0.30987 132 132 135
3.89787 2.72517 3.00541 -0.0192956 -0.930116 -0.366758 129 129 133
3.99112 2.73279 3.01468 -0.0287623 -0.924608 -0.379833 120 120 123
4.01546 2.73237 2.98507 -0.097208 -0.960138 -0.262081 121 122 125
5.37023 2.73959 2.14869 -0.219212 -0.962837 -0.15777 116 115 118
5.42772 2.72126 2.04119 -0.405954 -0.913593 -0.0234313 146 145 145
5.44551 2.71093 2.00738 -0.597045 -0.801371 -0.0366253 149 148 150
5.44175 2.7117 1.95012 -0.61626 -0.787447 -0.0123065 150 148 149
5.46214 2.70394 1.9216 -0.560652 -0.828003 0.00890723 115 114 116
5.47762 2.69216 1.88401 -0.445902 -0.742438 -0.499956 102 100 103
0.293343 2.72333 5.19898 -0.828247 -0.224561 -0.513399 120 120 125
0.401298 2.7118 5.10601 0.0590318 -0.919026 -0.389751 123 124 129
0.46932 2.72787 5.11044 -0.133579 -0.966361 -0.219779 118 119 123
0.501736 2.7135 5.04031 0.0416828 -0.96839 -0.245934 127 127 132
0.516642 2.72314 5.0595 0.160328 -0.949312 -0.270372 125 125 130
0.544353 2.71593 5.07456 0.048735 -0.967212 -0.24925 139 138 142
0.584026 2.71905 5.04413 0.183672 -0.942382 -0.279609 131 131 135
0.623103 2.7276 5.01412 0.0968647 -0.961417 -0.257477 136 136 140
0.665831 2.72769 4.97838 -0.119309 -0.969632 -0.213492 128 128 132
0.705082 2.72863 4.95679 -0.139642 -0.963655 -0.227746 127 127 130
0.744589 2.72594 4.93114 -0.213935 -0.957157 -0.195149 137 137 141
0.785553 2.72737 4.9153 -0.214873 -0.945602 -0.244269 141 141 144
0.823965 2.72329 4.9208 0.127983 -0.954025 -0.271031 137 137 140
0.864969 2.72926 4.89969 -0.0485155 -0.973351 -0.224132 126 126 131
0.899215 2.72143 4.85358 -0.141255 -0.969014 -0.202629 121 122 128
0.938578 2.72048 4.82967 -0.134601 -0.969887 -0.202982 124 124 129
0.97879 2.72206 4.80954 -0.0224114 -0.973098 -0.2293 118 118 124
1.01681 2.72329 4.78089 -0.192489 -0.963506 -0.186023 123 123 128
1.06038 2.72825 4.77242 -0.0530495 -0.974075 -0.219918 131 132 136
1.09897 2.72947 4.74626 -0.0836793 -0.974149 -0.209838 130 131 135
1.13567 2.72654 4.71474 -0.191875 -0.964696 -0.180404 121 122 126
1.20959 2.71373 4.57179 -0.0986908 -0.969785 -0.22311 128 128 133
1.25687 2.72016 4.61967 -0.0770431 -0.974936 -0.20872 125 125 129
3.93659 2.73167 2.9826 -0.0248841 -0.93204 -0.361501 119 120 124
4.80599 2.73572 2.38916 -0.163719 -0.960665 -0.224319 130 131 134
4.83676 2.72697 2.36045 -0.211744 -0.967708 -0.136766 133 133 136
5.40611 2.72594 1.98987 -0.279243 -0.959082 -0.0467529 109 108 109
5.42654 2.72668 1.9199 -0.559675 -0.828629 -0.0117361 145 142 141
5.43355 2.72203 1.89981 -0.563861 -0.825794 0.0111657 164 163 161
5.44825 2.70864 1.86378 -0.65802 -0.752622 -0.0238801 127 123 124
0.269124 2.72071 5.17433 -0.22439 -0.843274 -0.488403 114 116 120
0.426351 2.72687 5.07152 -0.0293382 -0.972283 -0.231961 126 127 132
0.462332 2.71959 5.02654 -0.0464571 -0.969529 -0.240533 119 120 125
0.509995 2.72531 4.99393 0.190534 -0.942582 -0.274294 127 127 133
0.542854 2.72212 5.01921 0.0894133 -0.83553 -0.54212 122 123 128
0.583602 2.7247 4.95627 -0.122681 -0.969342 -0.212896 139 139 143
0.623321 2.72887 4.9426 -0.160234 -0.95696 -0.241977 134 134 138
0.66366 2.73053 4.92112 -0.0200729 -0.973377 -0.228329 130 129 134
0.703633 2.73335 4.90095 -0.18564 -0.962584 -0.197406 128 128 133
0.743214 2.73099 4.8789 -0.134775 -0.968918 -0.207447 132 132 137
0.781547 2.72783 4.85099 -0.0327403 -0.968362 -0.247394 134 133 137
0.821658 2.72959 4.86486 0.0987305 -0.960818 -0.259 135 135 139
0.81798 2.73192 4.80478 0.0429782 -0.969669 -0.240616 133 132 137
0.858688 2.72733 4.83071 -0.0392026 -0.974035 -0.222978 122 122 127
0.89652 2.72736 4.80117 0.0165253 -0.971448 -0.236678 134 135 140
0.934256 2.72832 4.7709 0.14414 -0.950465 -0.275392 128 130 135
0.967489 2.72872 4.72851 0.150167 -0.949104 -0.276862 114 114 120
0.999626 2.72798 4.68394 0.159043 -0.946596 -0.280467 118 119 123
1.03468 2.72115 4.6939 0.108828 -0.957743 -0.266242 119 120 124
1.05764 2.73365 4.71889 -0.0608115 -0.975049 -0.213499 120 120 125
1.07168 2.7284 4.6678 0.0116993 -0.972253 -0.233641 120 121 125
1.11012 2.73291 4.64366 0.0147886 -0.972176 -0.233783 120 120 125
1.14527 2.73229 4.60993 0.0104468 -0.972671 -0.231954 126 126 130
1.18011 2.73132 4.57613 0.0745119 -0.964206 -0.254471 119 119 124
1.28534 2.72498 4.52383 0.232026 -0.882419 -0.409268 129 130 134
1.31367 2.73084 4.48891 0.1488 -0.945781 -0.288715 123 123 128
1.56919 2.7271 4.31141 -0.0761985 -0.977411 -0.197132 125 125 129
1.61146 2.73416 4.29888 -0.0693984 -0.977459 -0.199395 118 118 123
1.64754 2.73286 4.27236 -0.0773307 -0.977689 -0.195304 127 126 131
3.25168 2.74405 3.31947 -0.314703 -0.891691 -0.325346 123 124 126
3.28065 2.74396 3.30626 -0.374772 -0.60238 -0.704758 126 127 130
4.23987 2.72195 2.57028 -0.159767 -0.970126 -0.182564 113 114 117
4.28921 2.73269 2.59789 -0.196854 -0.972111 -0.12747 114 115 119
4.35996 2.74013 2.59646 -0.334168 -0.939955 0.0693999 123 123 126
4.5917 2.73037 2.4119 -0.235374 -0.968946 -0.0757829 127 128 130
4.64595 2.73226 2.39595 -0.24421 -0.967746 -0.0618763 119 120 122
4.6933 2.73024 2.37554 -0.229754 -0.96901 -0.0907387 126 126 128
4.74684 2.73642 2.35763 -0.170757 -0.964059 -0.20355 130 131 134
4.79263 2.73724 2.3371 -0.222629 -0.951738 -0.211263 136 136 138
4.73117 2.73631 2.30451 -0.139984 -0.953808 -0.265811 138 138 140
4.83708 2.73394 2.31275 -0.237052 -0.96794 -0.0830633 123 123 126
4.78247 2.74074 2.28694 -0.207946 -0.96945 -0.130094 118 118 120
4.83704 2.73805 2.26463 -0.227415 -0.968935 -0.0971981 127 128 130
5.41258 2.72615 1.84852 -0.385979 -0.922308 -0.0191844 135 132 131
5.43413 2.72256 1.83012 -0.504431 -0.863367 0.0120974 162 156 155
0.422968 2.72692 5.01011 -0.177148 -0.961298 -0.211007 121 122 127
0.461915 2.72929 4.97912 0.0100357 -0.972145 -0.234166 121 122 127
0.499536 2.73306 4.94803 0.0736285 -0.963049 -0.259065 132 133 138
0.537988 2.72925 4.96403 0.181179 -0.945218 -0.271547 122 123 129
0.53332 2.73013 4.8952 0.205161 -0.939471 -0.274415 136 136 140
0.581535 2.7304 4.90348 -0.0551328 -0.973934 -0.220029 135 135 140
0.619949 2.73164 4.88405 -0.0466805 -0.974212 -0.220754 136 137 141
0.66031 2.7314 4.85748 -0.107362 -0.972088 -0.208611 129 128 133
0.69973 2.73016 4.83576 0.0335716 -0.968313 -0.247475 140 140 144
0.737127 2.73333 4.80714 -0.0447817 -0.974801 -0.218535 127 127 131
0.773519 2.73051 4.77308 -0.0171402 -0.974554 -0.223496 138 138 142
0.81567 2.73712 4.75017 0.0427106 -0.970563 -0.23703 132 133 138
0.856418 2.73309 4.77748 -0.0542305 -0.97494 -0.215759 129 129 134
0.85082 2.73596 4.71321 -0.0212085 -0.975263 -0.220029 121 122 127
0.895614 2.73573 4.75449 -0.0500939 -0.975158 -0.215774 124 125 129
0.891318 2.73726 4.69478 -0.0911659 -0.974897 -0.203135 112 112 118
0.932835 2.73496 4.72488 -0.0377102 -0.975261 -0.217816 126 127 133
0.962242 2.73202 4.66651 0.180257 -0.941626 -0.284336 118 118 123
0.994623 2.73205 4.62356 0.142779 -0.951889 -0.271149 125 125 130
1.03325 2.7309 4.64595 0.11031 -0.956474 -0.270165 112 113 117
1.06824 2.73477 4.61375 -0.009507 -0.974741 -0.223136 121 121 125
1.10344 2.73344 4.58095 -0.00192894 -0.974207 -0.22565 128 128 133
1.14186 2.73538 4.55562 -0.0150895 -0.975289 -0.220419 120 120 124
1.2136 2.7314 4.53972 0.0721394 -0.964646 -0.253482 118 118 123
1.24876 2.73233 4.50738 0.0238685 -0.971638 -0.235267 115 117 121
1.24072 2.73051 4.44221 0.0209711 -0.972713 -0.231061 121 121 127
1.28352 2.73275 4.47571 0.0296995 -0.970992 -0.23726 121 121 126
1.30929 2.73756 4.43421 0.124308 -0.95342 -0.274841 126 126 131
1.347 2.7352 4.45511 0.095963 -0.959187 -0.265993 124 125 131
1.33971 2.73292 4.39087 0.084675 -0.962337 -0.258337 122 123 127
1.38016 2.73436 4.41904 0.0934767 -0.959637 -0.265252 123 123 127
1.41224 2.72416 4.33001 0.112693 -0.823289 -0.556323 117 118 123
1.4285 2.73479 4.4036 0.09483 -0.95872 -0.268074 129 129 134
1.44539 2.72296 4.35481 0.191671 -0.929084 -0.316331 131 131 135
1.47436 2.72484 4.31447 0.0640719 -0.964794 -0.255085 123 123 128
1.49174 2.73578 4.29923 -0.313781 -0.927952 -0.201115 121 121 126
1.53354 2.73337 4.33746 -0.205694 -0.967338 -0.148147 124 124 129
1.52487 2.73038 4.27922 -0.189332 -0.970304 -0.150545 118 119 124
1.56238 2.72754 4.2582 -0.179295 -0.971772 -0.153336 134 134 137
1.60476 2.73122 4.24758 -0.0105684 -0.974804 -0.222814 120 120 125
1.64122 2.73399 4.2233 -0.0226524 -0.975946 -0.216833 125 124 130
1.67025 2.73709 4.20149 0.184161 -0.927518 -0.325261 127 127 133
1.70573 2.73827 4.23063 0.121756 -0.948247 -0.293262 127 126 132
1.98001 2.72764 3.987 -0.0619282 -0.965421 -0.253232 129 130 134
2.71285 2.73561 3.58723 -0.0597653 -0.887639 -0.456645 132 132 134
3.33707 2.72881 3.16213 -0.173749 -0.970176 -0.169027 120 121 124
3.37691 2.73007 3.1443 -0.137108 -0.976381 -0.166976 131 132 134
3.88366 2.73333 2.80724 -0.311533 -0.949963 -0.0227644 124 125 128
4.21234 2.73198 2.60121 -0.123354 -0.963472 -0.237708 113 114 117
4.19432 2.72736 2.54481 -0.0913844 -0.951801 -0.292786 114 115 118
4.23973 2.73054 2.52606 -0.161061 -0.96835 -0.190677 119 119 123
4.27867 2.73123 2.54575 -0.172397 -0.971667 -0.161684 125 125 128
4.29105 2.73377 2.5107 -0.208723 -0.972595 -0.102443 129 130 132
4.52269 2.735 2.3662 -0.243069 -0.96855 -0.0531897 130 130 132
4.54145 2.73466 2.38312 -0.278492 -0.960436 0.00222573 140 141 143
4.5642 2.73767 2.34392 -0.174709 -0.968699 -0.176351 125 125 127
4.597 2.73752 2.36797 -0.212287 -0.970868 -0.111131 129 130 132
4.60463 2.73506 2.31992 -0.178328 -0.968451 -0.174074 121 121 123
4.64499 2.72625 2.3038 -0.396977 -0.8992 0.183978 133 133 136
4.64904 2.73284 2.25916 -0.21241 -0.970728 -0.112117 131 131 133
4.69818 2.73437 2.23955 -0.196297 -0.969646 -0.145791 125 125 127
4.83254 2.74002 2.21448 -0.222349 -0.969449 -0.103583 139 139 142
4.83039 2.74375 2.16576 -0.296637 -0.954353 0.0348853 126 127 129
4.88362 2.739 2.14884 -0.17762 -0.963154 -0.201952 122 122 124
5.22381 2.74236 1.96897 -0.205299 -0.963365 -0.17257 117 119 120
5.27104 2.74084 1.94472 -0.20643 -0.96247 -0.176175 102 102 104
5.45139 2.73934 1.74911 -0.842773 -0.499315 -0.201042 201 103 89
5.47776 2.7343 1.72404 -0.241856 -0.964836 -0.102941 149 111 106
5.46412 2.70995 1.65338 -0.928579 -0.0937388 0.359102 120 120 120
0.222951 2.72027 5.05258 -0.585362 -0.462289 -0.666063 121 122 126
0.252113 2.72171 5.04082 -0.74063 -0.274099 -0.613463 137 138 142
0.286409 2.738 5.06906 -0.10585 -0.814579 -0.570313 127 128 133
0.312047 2.73103 5.0244 -0.0497063 -0.972877 -0.22592 136 136 140
0.352331 2.73489 5.00225 -0.214597 -0.954327 -0.207865 128 128 132
0.383697 2.73521 4.9878 -0.227067 -0.951961 -0.205454 128 128 133
0.422495 2.73527 4.96249 -0.0977304 -0.968612 -0.228562 136 137 142
0.460676 2.73769 4.9282 -0.110696 -0.970959 -0.212094 131 131 136
0.49597 2.73528 4.8853 0.0470929 -0.970655 -0.23582 131 131 136
0.539348 2.7311 4.86902 0.167215 -0.949907 -0.264037 142 142 146
0.573924 2.72137 4.77514 -0.039512 -0.973286 -0.226172 137 136 141
0.619499 2.7366 4.82892 -0.0481765 -0.975046 -0.216711 136 136 140
0.657373 2.73416 4.79992 0.0223725 -0.972772 -0.230684 132 131 136
0.694377 2.73515 4.76839 0.0227078 -0.972938 -0.229948 128 129 132
0.731141 2.73607 4.73692 -0.0258875 -0.975552 -0.218241 127 128 133
0.769567 2.73907 4.71309 0.0446067 -0.971118 -0.234394 127 128 132
0.805343 2.73959 4.67967 0.00557822 -0.974762 -0.223176 121 122 127
0.846823 2.7336 4.65195 -0.02283 -0.975968 -0.216714 120 120 124
0.887914 2.73981 4.63883 -0.0973072 -0.975523 -0.197198 124 123 128
0.924185 2.73683 4.60953 -0.274465 -0.948095 -0.160576 119 120 125
0.962758 2.73342 4.59196 -0.0778294 -0.976504 -0.200955 122 123 127
0.986958 2.73084 4.54304 -0.0112456 -0.969234 -0.245883 129 129 132
1.02285 2.72855 4.57089 0.0269424 -0.97231 -0.232137 128 128 133
1.06783 2.74406 4.56883 -0.0562127 -0.949962 -0.307266 134 134 139
1.09515 2.7368 4.47769 -0.227171 -0.961252 -0.156169 126 126 130
1.13741 2.74086 4.47086 -0.215288 -0.963641 -0.158264 122 123 126
1.16644 2.71842 4.43052 0.0127167 -0.90865 -0.417364 122 122 126
1.31418 2.73736 4.39203 0.0162617 -0.973441 -0.22836 119 119 124
1.34789 2.7346 4.35852 0.0125341 -0.973789 -0.22711 121 121 127
1.37638 2.73055 4.31293 -0.0649617 -0.878921 -0.472523 120 120 125
1.41376 2.73653 4.29136 0.0348026 -0.971258 -0.235471 124 123 128
1.44739 2.73367 4.26202 -0.102351 -0.978263 -0.18035 117 117 123
1.48819 2.73883 4.24866 -0.0908784 -0.978773 -0.183694 128 129 134
1.52482 2.73849 4.22544 -0.0134862 -0.976368 -0.215693 123 124 129
1.56093 2.74032 4.20089 -0.0711583 -0.979147 -0.19028 123 123 127
1.59785 2.74133 4.17855 -0.121325 -0.978199 -0.168542 114 114 119
1.63491 2.74076 4.15694 -0.132822 -0.977608 -0.163219 116 116 121
1.67069 2.73772 4.13259 -0.0871745 -0.979305 -0.182652 116 116 120
1.70693 2.73751 4.10933 -0.0502328 -0.978559 -0.199747 119 120 125
1.74157 2.73696 4.08297 -0.0485803 -0.978418 -0.200842 123 123 128
1.80653 2.73568 4.07363 -0.212004 -0.969083 -0.126223 121 122 126
1.84151 2.74279 4.01131 -0.122528 -0.979177 -0.161864 115 115 120
1.98131 2.73416 3.969 -0.022615 -0.970419 -0.240364 123 124 129
2.6687 2.73801 3.4772 -0.744605 -0.494619 -0.448235 111 112 117
3.61351 2.73696 2.88188 -0.354007 -0.933044 -0.0640976 117 117 120
4.05929 2.73846 2.55491 -0.215786 -0.973369 -0.0773861 125 125 127
4.10265 2.73791 2.53562 -0.189775 -0.974786 -0.117381 118 118 120
4.1441 2.73779 2.51469 -0.162293 -0.97318 -0.163042 121 121 125
4.1858 2.73806 2.4937 -0.158502 -0.972211 -0.172288 116 116 120
4.22978 2.73623 2.47421 -0.209992 -0.973286 -0.0928345 122 121 124
4.47565 2.74053 2.33794 -0.356848 -0.934047 -0.0146989 122 123 125
4.51079 2.73448 2.31161 -0.178714 -0.970215 -0.163535 134 136 136
4.55458 2.73824 2.28986 -0.128831 -0.955227 -0.266353 122 122 124
4.49835 2.7338 2.25924 -0.130947 -0.957624 -0.256532 129 129 131
4.59609 2.75505 2.27036 -0.918389 -0.237529 0.316451 117 118 119
4.60497 2.73684 2.27937 -0.449205 -0.892792 -0.0337122 110 110 112
4.59721 2.73605 2.2304 -0.256838 -0.96199 -0.0927833 127 128 130
4.63968 2.73211 2.20774 -0.210621 -0.971134 -0.111973 129 128 131
4.76983 2.74364 2.17876 -0.30985 -0.94854 0.0653008 124 124 126
4.68929 2.72833 2.1333 -0.337522 -0.941057 0.0221649 129 130 132
4.76609 2.73796 2.12911 -0.321672 -0.942616 0.0894553 123 124 125
4.82959 2.7415 2.11742 -0.292144 -0.955677 0.0365112 120 121 123
4.86709 2.73657 2.03534 -0.150627 -0.952164 -0.265888 121 121 123
5.00447 2.75814 2.05724 -0.530375 -0.641546 -0.554185 127 127 130
4.92362 2.73245 1.97801 -0.514204 -0.784057 -0.347634 120 121 122
5.08884 2.7472 1.97032 -0.110715 -0.320835 -0.940642 125 127 129
5.11123 2.74289 1.93663 -0.366198 -0.929757 0.038081 121 122 124
5.14634 2.7405 1.92973 -0.239794 -0.967501 -0.080253 107 108 110
5.21101 2.74387 1.91438 -0.261853 -0.964525 -0.0335448 101 101 103
5.14404 2.74086 1.8794 -0.305611 -0.949692 0.0684662 103 103 104
5.24426 2.74292 1.83548 -0.253339 -0.965998 -0.0516388 90 90 91
5.42799 2.74626 1.71236 -0.269878 -0.962741 -0.0171885 157 122 112
5.44858 2.72188 1.68182 -0.915616 -0.402038 0.00360236 121 117 117
5.47744 2.7229 1.61792 -0.336307 -0.941748 0.00294217 117 114 115
0.194243 2.73614 4.99619 -0.497303 -0.445357 -0.744545 137 137 141
0.222512 2.73517 4.98007 -0.855902 -0.402337 -0.324894 151 151 155
0.259936 2.7383 4.94392 -0.0401301 -0.974212 -0.22204 138 137 142
0.281112 2.73959 5.0042 0.241163 -0.929939 -0.277587 133 134 138
0.3005 2.73522 4.97323 -0.0643254 -0.973182 -0.220859 137 138 142
0.34068 2.73711 4.9495 -0.108769 -0.970669 -0.214407 133 134 138
0.420082 2.74351 4.90022 -0.104106 -0.971992 -0.210698 124 125 130
0.458634 2.74234 4.87327 -0.0167583 -0.974933 -0.221866 131 131 136
0.461728 2.74051 4.82875 -0.0233411 -0.975447 -0.218996 136 136 140
0.502683 2.73836 4.85945 -0.0492235 -0.974918 -0.217051 134 134 138
0.499036 2.73746 4.79516 -0.125161 -0.971259 -0.202462 130 130 134
0.536488 2.73605 4.81032 0.145346 -0.955938 -0.255062 139 140 144
0.617391 2.73684 4.77443 -0.0179503 -0.975418 -0.219633 130 130 134
0.614367 2.73832 4.71536 0.0495037 -0.97177 -0.230677 132 133 137
0.653536 2.7357 4.73897 0.0518114 -0.970858 -0.233986 130 130 135
0.6911 2.73928 4.71026 0.00545473 -0.974976 -0.222242 133 134 138
0.72866 2.74044 4.68304 -0.0539282 -0.976544 -0.208457 136 135 141
0.766658 2.74217 4.65927 -0.0324887 -0.976714 -0.212074 125 125 130
0.803315 2.74207 4.63074 -0.0254786 -0.976827 -0.212511 112 112 118
0.839648 2.74187 4.6017 -0.0516907 -0.977361 -0.205165 129 129 132
0.875393 2.73988 4.57142 -0.142904 -0.97265 -0.183117 129 130 135
0.911087 2.73514 4.54264 -0.0561416 -0.977582 -0.202934 127 128 132
0.950335 2.74019 4.52564 -0.0880392 -0.977185 -0.193286 122 122 126
0.987454 2.74019 4.50185 0.0410336 -0.964 -0.262716 130 130 134
1.02606 2.74096 4.53005 0.0839792 -0.965475 -0.246587 139 140 144
1.06049 2.7437 4.50836 -0.16624 -0.970939 -0.17217 127 127 132
1.05574 2.74314 4.45082 -0.218821 -0.963221 -0.155955 126 126 130
1.09061 2.73658 4.42249 -0.222749 -0.962681 -0.153713 131 132 136
1.13064 2.73989 4.41193 -0.266868 -0.953332 -0.141208 126 126 130
1.16994 2.73836 4.39817 -0.147226 -0.974187 -0.171127 135 135 138
1.21024 2.74189 4.38507 -0.147736 -0.974459 -0.169126 136 136 140
1.24878 2.74248 4.36691 -0.0496924 -0.978567 -0.199843 125 125 130
1.2755 2.74041 4.36852 -0.0590502 -0.978279 -0.198707 128 129 133
1.2708 2.73762 4.30988 -0.33405 -0.935604 -0.114265 125 125 129
1.30905 2.73716 4.33437 -0.00320186 -0.975992 -0.217782 117 117 122
1.34285 2.73631 4.3038 0.00231361 -0.97553 -0.219853 121 121 126
1.37602 2.74035 4.26881 0.143182 -0.94912 -0.280484 124 124 128
1.41077 2.74196 4.24263 -0.000761807 -0.974396 -0.224836 125 125 131
1.43326 2.72248 4.18765 -0.0754365 -0.978381 -0.192561 122 121 127
1.47867 2.73772 4.18591 -0.0203775 -0.977675 -0.209131 125 125 130
1.51571 2.74243 4.16804 -0.124432 -0.978305 -0.165638 125 125 129
1.55269 2.74199 4.14717 -0.0191347 -0.977662 -0.209313 117 118 122
1.58869 2.74441 4.12384 -0.0630329 -0.979907 -0.189236 114 114 119
1.62225 2.74202 4.09568 -0.127281 -0.978707 -0.161038 124 124 128
1.65495 2.7362 4.06643 -0.132662 -0.978401 -0.158534 122 122 127
1.6947 2.74034 4.05237 0.0338248 -0.970801 -0.23749 125 125 129
1.7314 2.74602 4.03101 0.0324364 -0.970849 -0.237486 125 126 130
1.81084 2.74872 4.04125 -0.12754 -0.972781 -0.19347 119 119 123
1.96897 2.74108 3.8661 0.10143 -0.951769 -0.289564 138 137 141
2.01467 2.74722 3.90174 0.108979 -0.948159 -0.298528 133 133 138
1.9999 2.74455 3.83586 0.114144 -0.947287 -0.299364 132 132 136
2.03026 2.74096 3.80988 -0.125469 -0.98035 -0.152222 137 137 140
2.06629 2.73439 3.8291 -0.0338238 -0.977195 -0.209633 123 123 129
2.10371 2.73833 3.8088 -0.0302316 -0.976812 -0.211954 122 122 127
2.09557 2.73904 3.75511 -0.0318549 -0.975961 -0.215605 133 134 139
2.13883 2.74043 3.78603 -0.202591 -0.973013 -0.110468 121 121 127
2.17748 2.73821 3.76837 -0.159974 -0.977955 -0.134207 134 134 139
2.64444 2.75521 3.4619 -0.895422 -0.371016 -0.246104 127 127 131
3.56159 2.73581 2.84992 -0.150156 -0.977489 -0.148217 132 133 136
3.63921 2.74493 2.80036 -0.272284 -0.446406 -0.852398 129 129 132
3.97054 2.74003 2.59101 -0.192925 -0.97553 -0.105452 123 124 126
4.01555 2.74033 2.57346 -0.199224 -0.974994 -0.0984665 134 135 138
4.0163 2.74103 2.51252 -0.238641 -0.970325 -0.0389859 118 118 121
4.06856 2.74469 2.49987 -0.227655 -0.972199 -0.0547941 124 123 127
4.11247 2.74024 2.48182 -0.259524 -0.965667 -0.0115612 123 124 127
4.14988 2.73972 2.45843 -0.128259 -0.967035 -0.219985 124 124 127
4.18454 2.74143 2.4481 -0.242246 -0.969326 -0.0415311 117 116 120
4.27103 2.73923 2.39489 -0.147353 -0.96929 -0.196884 128 129 130
4.27156 2.74181 2.35166 -0.226447 -0.972163 -0.0601705 124 125 127
4.31965 2.74092 2.37776 -0.203592 -0.973593 -0.103277 126 126 129
4.41981 2.73984 2.30469 -0.329408 -0.93944 0.0945676 116 116 118
4.42034 2.74413 2.26225 -0.267886 -0.963447 -0.00277925 123 124 126
4.45075 2.73937 2.23393 -0.124386 -0.9566 -0.263525 121 121 123
4.50703 2.73777 2.22475 -0.131084 -0.957651 -0.256361 117 118 119
4.49076 2.73956 2.19533 -0.183039 -0.971907 -0.147964 116 117 119
4.54347 2.73746 2.20041 -0.148015 -0.943721 -0.295773 136 137 138
4.59383 2.73814 2.18385 -0.202401 -0.971837 -0.12069 135 134 137
4.58724 2.73949 2.13456 -0.204965 -0.972284 -0.112484 119 120 121
4.63179 2.73453 2.15739 -0.227611 -0.970803 -0.0757305 123 123 126
4.63951 2.73934 2.13788 -0.203778 -0.969126 -0.138814 131 132 134
4.67808 2.72923 2.11406 -0.256111 -0.966351 -0.023934 122 122 124
4.68805 2.73445 2.07246 -0.289876 -0.956343 0.0371442 131 132 132
4.78172 2.74749 2.08905 -0.345364 -0.928607 0.135694 116 117 118
4.7366 2.74448 2.05444 -0.2669 -0.963723 0.00124815 126 127 128
4.77407 2.74619 2.03003 -0.304942 -0.949812 0.0697774 120 120 121
4.82517 2.74317 1.98961 -0.236143 -0.969755 -0.0617383 125 126 127
4.92083 2.74478 2.0163 -0.15227 -0.951623 -0.266885 117 118 119
4.8709 2.73878 1.968 -0.236255 -0.96946 -0.065816 122 123 124
4.88774 2.7352 1.93638 -0.228292 -0.917327 -0.326181 112 113 115
4.89777 2.73791 1.92226 -0.178421 -0.963054 -0.201724 122 123 124
4.97727 2.74626 1.95897 -0.0993657 -0.895154 -0.434542 124 125 127
5.01817 2.76136 1.93664 -0.0379297 -0.674364 -0.737424 124 126 127
5.02882 2.73737 1.91025 -0.162491 -0.463109 -0.871279 124 123 126
5.09156 2.75445 1.90202 -0.561247 -0.371933 -0.739369 133 131 133
5.14063 2.74801 1.80957 -0.326246 -0.757459 -0.565526 105 107 108
5.24324 2.74721 1.81199 -0.946487 -0.321695 -0.025977 86 87 87
5.42292 2.7443 1.65991 -0.303007 -0.950448 0.0695392 131 130 129
5.44148 2.7384 1.65059 -0.912411 -0.409008 -0.0148149 143 143 141
5.40328 2.72951 1.6025 -0.382558 -0.92163 0.0651667 154 152 150
0.196731 2.73575 4.93525 -0.243261 -0.904435 -0.350459 138 137 142
0.219863 2.74189 4.91701 -0.0918922 -0.967308 -0.236373 133 133 138
0.221451 2.74164 4.92798 0.130473 -0.946888 -0.293905 136 136 141
0.259611 2.74662 4.89634 0.153754 -0.956537 -0.247785 142 142 147
0.299004 2.73917 4.91691 -0.0995029 -0.971846 -0.213578 136 137 141
0.297443 2.74066 4.85904 -0.0946847 -0.972932 -0.210802 125 126 130
0.338392 2.74098 4.89506 -0.148973 -0.953938 -0.260401 142 142 146
0.375678 2.73648 4.8483 -0.0266617 -0.975303 -0.219258 128 128 132
0.420972 2.73901 4.79519 0.0113068 -0.974864 -0.222516 122 123 128
0.415783 2.73796 4.83191 -0.0370304 -0.97548 -0.21695 127 128 133
0.458656 2.73753 4.76421 -0.205711 -0.959587 -0.192034 122 121 126
0.497296 2.73776 4.74661 0.0146816 -0.974862 -0.222327 130 130 134
0.535397 2.74188 4.72237 -0.0402152 -0.976616 -0.211197 124 124 128
0.544511 2.7427 4.72571 -0.034705 -0.976633 -0.212094 128 127 132
0.575205 2.74035 4.69081 0.00972132 -0.975559 -0.219524 126 126 131
0.613297 2.74605 4.66708 -0.0520889 -0.977251 -0.205591 125 125 130
0.650637 2.73977 4.68369 0.0489586 -0.971992 -0.229858 121 121 125
0.68939 2.74516 4.65816 0.0334085 -0.973808 -0.224904 134 135 139
0.72673 2.74548 4.63183 -0.0449467 -0.977451 -0.206324 123 124 128
0.761435 2.74012 4.59544 -0.00762889 -0.976711 -0.214423 127 127 132
0.801149 2.747 4.57938 -0.0328338 -0.97776 -0.207141 126 127 131
0.834971 2.74342 4.54039 -0.048417 -0.978132 -0.20227 131 132 136
0.87096 2.73931 4.51284 -0.114464 -0.975824 -0.186187 134 136 139
0.94892 2.74603 4.47815 -0.0496573 -0.978609 -0.199646 125 126 130
